# .PCD v0.7 - Point Cloud Data file format
VERSION 0.7
FIELDS x y z intensity
SIZE 4 4 4 4
TYPE F F F F
COUNT 1 1 1 1
WIDTH 1281
HEIGHT 1
VIEWPOINT 0 0 0 1 0 0 0
POINTS 1281
DATA ascii
6.6127124 0.014717516 -0.88042903 33
6.4599791 -0.03909852 -0.75352013 33
6.5426207 -0.070170909 -0.87419999 33
6.4977956 0.11248768 -0.87419999 33
6.4284315 -0.088525847 -0.8836298 33
6.5231524 0.094229661 -0.89999998 33
6.5939622 -0.014712415 -0.89999998 33
6.607038 -0.0032931659 -0.89999998 33
6.497683 0.078029118 -0.87133467 33
6.5471935 0.046096802 -0.80683702 33
6.4527903 -0.053693835 -0.83490938 33
6.5367789 0.010181941 -0.89999998 33
6.5193009 0.027573321 -0.63503808 33
6.5081463 0.021718552 -0.57961935 33
6.4687366 -0.028904011 -0.68254483 33
6.5470843 -0.10335055 -0.88451648 33
6.4764366 0.063088879 -0.81377125 33
6.502553 -0.072824493 -0.84362137 33
6.5746198 0.016461305 -0.86082023 33
6.4642758 0.05187659 -0.79113394 33
6.5451846 0.014073164 -0.70782602 33
6.5215344 -0.03182409 -0.66034055 33
6.4914927 0.091542087 -0.89999998 33
6.4886117 0.069732629 -0.83165199 33
6.5886798 -0.036835879 -0.89999998 33
6.5467377 0.035654057 -0.89999998 33
6.487206 0.0025902307 -0.89999998 33
6.4995251 -0.034652188 -0.64013594 33
6.5523758 -0.10088325 -0.88777167 33
6.5263162 0.0023319942 -0.59657305 33
6.4842887 -0.093247175 -0.87419999 33
6.4411116 -0.050447058 -0.89999998 33
6.5261707 0.015043728 -0.61619896 33
6.5540404 0.025795758 -0.89999998 33
6.5741596 -0.0052993326 -0.85151714 33
6.5527534 0.027545389 -0.77244991 33
6.5195918 0.060785327 -0.79413259 33
6.4479699 0.01517489 -0.74430519 33
6.4155107 0.076117449 -0.87954879 33
6.5311532 0.038059399 -0.717305 33
6.432725 -0.039409634 -0.89999998 33
6.4232597 -0.013558515 -0.86977965 33
6.5003901 -0.068255469 -0.81929255 33
6.4684587 -0.013313208 -0.6375708 33
6.612237 -0.019912768 -0.88006353 33
6.4593515 0.035091907 -0.74172831 33
6.4648333 -0.0055334945 -0.64515811 33
6.4856305 -0.017996242 -0.57878637 33
6.6029429 0.047958374 -0.88456053 33
6.5258241 -0.027962947 -0.89999998 33
6.4531751 0.05966514 -0.85942841 33
6.4851022 0.055859543 -0.76328087 33
6.5183787 -0.0441369 -0.71035266 33
6.4450336 0.067499101 -0.89999998 33
6.5139489 0.031584252 -0.63969821 33
6.5422783 0.040938254 -0.76900792 33
6.387229 0.00035458297 -0.87419999 33
6.4309764 -0.034648187 -0.86638921 33
6.3878412 -0.019660352 -0.89999998 33
6.516274 0.11257621 -0.87756419 33
6.5648594 -0.064381517 -0.89999998 33
6.5250187 -0.0095023708 -0.59830886 33
6.5518718 -0.069822572 -0.87419999 33
6.4745545 -0.056574099 -0.89999998 33
6.5317798 0.040787004 -0.73101705 33
6.555984 -0.099200577 -0.88860857 33
6.4241004 -0.042763729 -0.89999998 33
6.4737768 -0.033934467 -0.89999998 33
6.5493054 -0.011975524 -0.72524297 33
6.4326954 0.052607849 -0.89999998 33
6.4532032 -0.094795503 -0.87419999 33
6.5210605 0.0084346803 -0.57698023 33
6.4580169 0.067349277 -0.89999998 33
6.5084748 -0.056197643 -0.7579307 33
6.3975492 -0.01606553 -0.87419999 33
6.4096379 0.067077748 -0.87419999 33
6.5213323 -0.075501792 -0.87270874 33
6.4333277 -0.029258786 -0.84163153 33
6.5884376 0.019637959 -0.87419999 33
6.4462023 -0.02077237 -0.89999998 33
6.5524192 -0.002283582 -0.73471093 33
6.5304008 0.078215964 -0.87419999 33
6.3920436 0.0075830691 -0.87419999 33
6.5023136 -0.052011196 -0.73279589 33
6.4486055 -0.036084414 -0.78891861 33
6.5409112 0.0045566754 -0.6750344 33
6.5571237 -0.093137138 -0.89999998 33
6.5247188 -0.034983858 -0.68391877 33
6.5663619 -0.061471771 -0.89999998 33
6.5090203 0.10835527 -0.87419999 33
6.5358057 -0.10797822 -0.87924999 33
6.5124464 -0.040068191 -0.6783191 33
6.4701424 -0.059854317 -0.81166971 33
6.4736495 -0.032213598 -0.89999998 33
6.5742745 -0.010502551 -0.85502243 33
6.4817052 -0.076307133 -0.87354052 33
6.4694991 -0.068587922 -0.8555463 33
6.4338641 -0.0078812931 -0.81046289 33
6.497704 -0.049201433 -0.71783459 33
6.5846777 -0.056840766 -0.89999998 33
6.4316998 -0.030264035 -0.8515287 33
6.4871821 -0.021642799 -0.58920056 33
6.4696655 -0.060730554 -0.81696475 33
6.5659609 -0.029927023 -0.89999998 33
6.4434576 -0.015640911 -0.76792377 33
6.5231447 -0.01796159 -0.61166245 33
6.5593824 0.0013727786 -0.7710768 33
6.5181675 -0.08946313 -0.87419999 33
6.5813966 -0.052315742 -0.87419999 33
6.4625955 -0.048751842 -0.89999998 33
6.5628881 -0.041420251 -0.8561253 33
6.5148568 -0.071013309 -0.84216183 33
6.4527216 -0.053084228 -0.83249885 33
6.5327773 -0.029239101 -0.68972903 33
6.4675107 -0.063750401 -0.83632153 33
6.4659457 0.0048906314 -0.63890779 33
6.5956573 -0.043467574 -0.87419999 33
6.4801555 -0.057940092 -0.78067136 33
6.5625176 -0.040920425 -0.89999998 33
6.5348415 -0.035105158 -0.71879739 33
6.5157533 -0.027226074 -0.62243885 33
6.4917364 -0.06648507 -0.81127805 33
6.4755588 0.0012102147 -0.89999998 33
6.5069861 -0.014842056 -0.89999998 33
6.39533 0.0055670934 -0.87419999 33
6.4431982 0.03655469 -0.81510514 33
6.5883713 0.049916964 -0.89999998 33
6.4842591 -0.047342367 -0.72023308 33
6.4776249 0.016434001 -0.60358119 33
6.4498811 0.042043671 -0.89999998 33
6.4937701 -0.04066791 -0.67455989 33
6.6133494 -0.0074367183 -0.8803733 33
6.5864682 0.032234978 -0.87419999 33
6.4714317 0.065474205 -0.83621395 33
6.4622569 -0.020756571 -0.89999998 33
6.5131493 -0.029765178 -0.62911725 33
6.5728827 0.042504612 -0.89999998 33
6.4291325 -0.08901684 -0.89100266 33
6.4660001 0.10846212 -0.87521547 33
6.4702024 0.0019717836 -0.61474186 33
6.4673252 0.0018826772 -0.6299293 33
6.475596 -0.008190373 -0.59269524 33
6.386085 -0.00096937484 -0.89676732 33
6.4615273 0.03242689 -0.72362417 33
6.4109697 0.06246217 -0.87419999 33
6.5320864 -0.061233152 -0.82320321 33
6.5314593 -0.047029987 -0.7569077 33
6.5994453 -0.055459294 -0.87492359 33
6.4663711 0.031032614 -0.69948965 33
6.4712648 -0.048750114 -0.75579196 33
6.5420399 -0.095583372 -0.89999998 33
6.4275575 0.078060083 -0.87419999 33
6.3866053 0.0069188513 -0.87539476 33
6.5393472 0.0096928915 -0.67103887 33
6.5132504 -0.11284076 -0.89742142 33
6.4837208 -0.044888142 -0.70946056 33
6.5857105 -0.012723156 -0.89999998 33
6.600389 0.021538433 -0.89999998 33
6.4694986 0.085972413 -0.89999998 33
6.5219979 0.064322069 -0.81637996 33
6.4774575 0.033548784 -0.67092484 33
6.570745 -0.0086407457 -0.83529514 33
6.4805136 -0.053119443 -0.75644666 33
6.4602933 -0.10354845 -0.89999998 33
6.5429659 -0.040370151 -0.89999998 33
6.5113506 -0.03938977 -0.67356694 33
6.4418268 0.0012914549 -0.76462877 33
6.5035415 -0.025274128 -0.59185308 33
6.4660773 -0.070464604 -0.87208587 33
6.4269366 -0.0023370043 -0.84406233 33
6.5479879 0.0371796 -0.77820885 33
6.4643564 0.056815255 -0.81215572 33
6.5271487 0.034663737 -0.89999998 33
6.5558715 0.041921295 -0.82629919 33
6.5303369 0.011251984 -0.62776113 33
6.5056686 0.0031178014 -0.89999998 33
6.4191351 0.071787007 -0.89999998 33
6.5269246 0.064573482 -0.8282733 33
6.5446954 -0.020696301 -0.71705794 33
6.4530306 -0.033508576 -0.76165539 33
6.6011529 0.011536129 -0.87419999 33
6.5012994 0.027846711 -0.89999998 33
6.5193667 0.029909061 -0.64530545 33
6.537199 0.047679983 -0.77767205 33
6.5420256 -0.045247868 -0.78336221 33
6.4249892 -0.00021215627 -0.85319293 33
6.5306501 -0.00066436693 -0.61853009 33
6.515449 0.028118219 -0.62608653 33
6.6092162 0.031184996 -0.89773637 33
6.427763 0.069997236 -0.89999998 33
6.4636207 -0.014341928 -0.89999998 33
6.546813 -0.02152748 -0.72903448 33
6.5184975 -0.11238167 -0.88972569 33
6.5330853 0.052021794 -0.7834999 33
6.4344721 0.092755586 -0.88871813 33
6.607398 -0.037971064 -0.89939857 33
6.4465876 0.083485231 -0.89999998 33
6.5381207 -0.037986394 -0.7420398 33
6.6067481 -0.021875039 -0.87419999 33
6.4607086 -0.023945862 -0.89999998 33
6.5108762 -0.073202811 -0.84915912 33
6.5383449 0.10534829 -0.87419999 33
6.4413953 -0.097603232 -0.88750589 33
6.5382919 -0.10443191 -0.87419999 33
6.4821243 -0.067485832 -0.82713163 33
6.569087 -0.002708731 -0.82321346 33
6.5780468 -0.071856588 -0.87419999 33
6.4389958 0.031231798 -0.82031262 33
6.449502 0.056257773 -0.85624582 33
6.5705996 -0.014683547 -0.83788866 33
6.4309435 -0.059440121 -0.89999998 33
6.4811954 0.055279829 -0.76547903 33
6.5477533 0.020255884 -0.73100954 33
6.4386716 -0.071843974 -0.89999998 33
6.4470778 0.0025050875 -0.89999998 33
6.5700951 -0.024974301 -0.85191435 33
6.5359516 -0.0089190826 -0.65247846 33
6.4392347 -0.048215777 -0.86809099 33
6.4920664 0.0399286 -0.67258567 33
6.5387497 0.018275803 -0.68319446 33
6.4557586 0.031523589 -0.74379009 33
6.5035496 -0.033989765 -0.63718903 33
6.5197577 0.061120648 -0.79606307 33
6.4489532 0.0094331577 -0.73142123 33
6.4947548 0.039094821 -0.66523027 33
6.422051 -0.0091136601 -0.89999998 33
6.4876361 0.039092094 -0.67313617 33
6.5204983 0.08201208 -0.89999998 33
6.4298081 -0.015738782 -0.89999998 33
6.4839993 -0.058487792 -0.89999998 33
6.4864726 0.09777353 -0.89999998 33
6.4416213 -0.0023621744 -0.76631325 33
6.4910345 0.064934112 -0.80397701 33
6.47539 0.063955829 -0.82025588 33
6.531858 0.10903611 -0.8810513 33
6.5335279 0.0465432 -0.89999998 33
6.4693041 -0.048568789 -0.7611475 33
6.5701447 -0.0011692949 -0.82795674 33
6.5293312 0.037305295 -0.708354 33
6.4346366 0.039243307 -0.86174327 33
6.4135976 0.030076887 -0.89999998 33
6.4582958 -0.049619365 -0.80012608 33
6.5671959 0.027903132 -0.84205222 33
6.5706525 0.0066678538 -0.83370554 33
6.552546 -0.010217911 -0.73979819 33
6.5409827 0.049824089 -0.89999998 33
6.4725342 -0.047232062 -0.74527854 33
6.5606394 0.085297979 -0.87419999 33
6.556036 -0.050287455 -0.85675901 33
6.5147209 -0.0031389873 -0.89999998 33
6.4719553 0.037978999 -0.70723104 33
6.492106 -0.030849058 -0.6250174 33
6.501719 -0.073808387 -0.84886038 33
6.4855914 -0.019141046 -0.58370453 33
6.3974581 0.048818432 -0.8964507 33
6.6046152 -0.034962699 -0.89999998 33
6.461288 -0.042067662 -0.7589193 33
6.598382 0.014774536 -0.89999998 33
6.6037669 0.013399978 -0.87419999 33
6.486114 -0.084688269 -0.89999998 33
6.417779 -0.078385912 -0.88485897 33
6.4223533 -0.01184413 -0.89999998 33
6.5047722 -0.065522455 -0.80473989 33
6.4242148 -0.013521125 -0.89999998 33
6.5094318 -0.061373223 -0.78594697 33
6.5245042 -0.038228687 -0.89999998 33
6.5470495 0.016364645 -0.72104073 33
6.4697843 0.040878754 -0.7265169 33
6.4091592 0.068262674 -0.87421477 33
6.594192 -0.063476756 -0.89554435 33
6.4867187 0.073169619 -0.89999998 33
6.5437269 -0.10491625 -0.88350302 33
6.5268626 -0.008793856 -0.89999998 33
6.4883752 0.10035587 -0.89999998 33
6.4535937 0.082061775 -0.89999998 33
6.5533767 0.012644446 -0.74696118 33
6.4306955 -0.022291949 -0.8434965 33
6.4594488 -0.021185638 -0.69924897 33
6.4005613 -0.045478299 -0.87419999 33
6.421936 -0.018206036 -0.87419999 33
6.52002 -0.044763248 -0.71695465 33
6.4919901 0.047713745 -0.71322894 33
6.491375 -0.075364344 -0.89999998 33
6.5277672 0.020693339 -0.63962406 33
6.4290552 0.071138218 -0.89999998 33
6.5500455 0.079058491 -0.89999998 33
6.520607 -0.052296512 -0.89999998 33
6.5245566 0.068671614 -0.84307981 33
6.5756173 -0.044796839 -0.89999998 33
6.5480676 -0.036127958 -0.77477765 33
6.3938727 -0.033404808 -0.89999998 33
6.4577041 0.09871114 -0.89999998 33
6.4956064 -0.043420751 -0.68705392 33
6.4272957 -0.047708035 -0.87419999 33
6.6092458 0.028684992 -0.89999998 33
6.5154839 -0.051277641 -0.74006492 33
6.5221786 -0.045129504 -0.72341144 33
6.4710083 0.019515982 -0.64127874 33
6.3960338 -0.032970961 -0.89999998 33
6.4928675 0.096259549 -0.89999998 33
6.5440173 -0.10478073 -0.88498628 33
6.5313463 -0.056620747 -0.79916459 33
6.5006084 0.074390016 -0.89999998 33
6.5038037 0.11366722 -0.89767241 33
6.5050459 -0.025424805 -0.89999998 33
6.4366765 0.00095756893 -0.79171759 33
6.4711943 -0.0080269175 -0.61463767 33
6.5970211 -0.059436183 -0.88061589 33
6.5386739 0.018907053 -0.68452722 33
6.3959479 0.0096336761 -0.89999998 33
6.5228248 0.086021468 -0.87419999 33
6.4436107 -0.048879214 -0.85313928 33
6.4842939 0.060119491 -0.78636301 33
6.5661521 0.042343453 -0.87363589 33
6.4308934 -0.019245878 -0.8374818 33
6.5755959 0.004464197 -0.85865802 33
6.5010114 -0.072786577 -0.84341949 33
6.4636908 0.028114837 -0.69969904 33
6.5377164 -0.017004151 -0.89999998 33
6.4557438 0.022493429 -0.89999998 33
6.5419903 0.064648412 -0.86576456 33
6.5211096 -0.014973491 -0.59365034 33
6.5872102 -0.044595331 -0.87419999 33
6.4417977 0.015010972 -0.77529305 33
6.4314661 -0.01040051 -0.82456404 33
6.4372635 0.045660086 -0.86678624 33
6.5102277 -0.10346896 -0.87419999 33
6.549602 -0.015792862 -0.73302591 33
6.4499326 -0.007908293 -0.89999998 33
6.5130649 0.048369393 -0.72223997 33
6.4305949 -0.015883926 -0.83346325 33
6.444087 0.099233776 -0.8876698 33
6.529953 0.069662608 -0.85958761 33
6.4652944 -0.042675432 -0.7483092 33
6.5246119 -0.03753772 -0.69458538 33
6.5680618 0.090981424 -0.88007849 33
6.5478058 0.068344854 -0.87419999 33
6.4455485 -0.0037942324 -0.74631381 33
6.5641041 0.063812487 -0.89999998 33
6.4162588 0.014950405 -0.89999998 33
6.4468455 0.012123494 -0.74497885 33
6.4328766 0.00068129256 -0.81168526 33
6.5301852 -0.020260666 -0.89999998 33
6.4730883 -0.03942851 -0.70992929 33
6.5327082 -0.052126374 -0.78277063 33
6.4719214 -0.019567613 -0.63732553 33
6.4803286 -0.077104554 -0.89999998 33
6.5355434 0.019398887 -0.67137742 33
6.5612597 -0.063018568 -0.89999998 33
6.4653435 -0.052217022 -0.78925937 33
6.4425783 -0.037778482 -0.82122141 33
6.5104337 -0.04434726 -0.69837826 33
6.4435878 0.015880197 -0.76765752 33
6.5315137 0.10372893 -0.89999998 33
6.5445504 -0.057791371 -0.84423846 33
6.581214 0.07939294 -0.87789857 33
6.5384731 0.043317541 -0.89999998 33
6.4799223 0.07288336 -0.85768193 33
6.4293003 -0.0043929294 -0.8326903 33
6.4651208 0.090017356 -0.89999998 33
6.5697799 0.089778461 -0.8878001 33
6.4285331 -0.030660434 -0.8682164 33
6.3870268 0.01173432 -0.89199948 33
6.4147191 -0.071044415 -0.89999998 33
6.4606853 -0.010973111 -0.67299169 33
6.4449677 0.099644504 -0.89339793 33
6.5450444 -0.02003495 -0.71692622 33
6.4370017 0.064426027 -0.89999998 33
6.5490251 0.0088817794 -0.72040772 33
6.5284286 0.036594972 -0.70246977 33
6.5036545 -0.033547133 -0.6349588 33
6.4554281 0.05686225 -0.89999998 33
6.5406146 0.05095391 -0.80246544 33
6.3975372 0.048988588 -0.89443052 33
6.5401969 0.011760162 -0.67876285 33
6.5448494 0.036224384 -0.76238698 33
6.5633249 -0.071659438 -0.89999998 33
6.5609517 0.0059890803 -0.78195781 33
6.5496097 -0.022919053 -0.89999998 33
6.4899325 -0.040670857 -0.67882466 33
6.5431299 0.018012712 -0.89999998 33
6.4546609 -0.024262115 -0.72951943 33
6.5407877 -0.0043918816 -0.67428803 33
6.4338274 -0.092304066 -0.88693714 33
6.4824376 0.02014742 -0.59805101 33
6.5230713 0.0047214567 -0.58124048 33
6.4899282 -0.058574729 -0.77207971 33
6.4465599 0.036306299 -0.79894108 33
6.4518709 -0.072836645 -0.89999998 33
6.475287 -0.017221045 -0.61582464 33
6.4853301 0.037538659 -0.67022407 33
6.4321594 -0.01127985 -0.82138312 33
6.4564695 -0.05480032 -0.828161 33
6.5548372 -0.056189295 -0.89999998 33
6.4404473 0.024250923 -0.89999998 33
6.4918523 0.069903597 -0.82895476 33
6.5202446 0.035422683 -0.6720047 33
6.4666753 -0.0096820863 -0.64037132 33
6.4403367 -0.021650955 -0.79361749 33
6.5209479 0.042159066 -0.70629638 33
6.5599675 0.033575151 -0.8217718 33
6.4762745 0.056510221 -0.78212112 33
6.5286999 0.013173318 -0.62351912 33
6.4371419 0.040026512 -0.89999998 33
6.5331249 -0.011126626 -0.64174283 33
6.5469632 -0.060560074 -0.86371672 33
6.5448561 0.075030565 -0.87419999 33
6.4137902 0.07439708 -0.89109522 33
6.532867 0.041034453 -0.73548573 33
6.5033507 -0.016686508 -0.57499999 33
6.570374 -0.033178803 -0.86870354 33
6.4983835 -0.063430615 -0.79360133 33
6.4855614 -0.035445832 -0.89999998 33
6.5004325 0.030810541 -0.61954463 33
6.4332957 -0.025681769 -0.89999998 33
6.5208435 0.057429489 -0.78035128 33
6.5142117 -0.092182972 -0.87419999 33
6.4346919 0.054807752 -0.89999998 33
6.5689092 -0.06086782 -0.87419999 33
6.4362664 0.055003386 -0.87419999 33
6.4955945 -0.036100913 -0.64875525 33
6.4167366 -0.057852346 -0.87419999 33
6.5467839 -0.0036633282 -0.70563728 33
6.4509711 0.027184917 -0.75431639 33
6.402091 0.049052596 -0.89999998 33
6.5249429 -0.02909518 -0.89999998 33
6.418272 0.016999727 -0.89999998 33
6.3863807 -0.0043532997 -0.87860364 33
6.3860974 0.0011119992 -0.89231181 33
6.5356054 -0.0025705644 -0.6458317 33
6.5690885 0.0033257192 -0.82356352 33
6.6002927 -0.053642645 -0.89781755 33
6.5387173 0.051517755 -0.79895598 33
6.5051007 0.067061096 -0.81293279 33
6.5251994 0.11082015 -0.88901359 33
6.5183072 0.09480498 -0.87419999 33
6.5618687 0.095317699 -0.89540863 33
6.5570951 -0.019266982 -0.77668864 33
6.5401883 0.03792195 -0.89999998 33
6.4768929 0.11021904 -0.87419999 33
6.4500794 -0.017323526 -0.73715967 33
6.4988737 -0.10411895 -0.87419999 33
6.4371467 0.094628513 -0.88827515 33
6.5205054 -0.011872249 -0.58140242 33
6.5683856 -0.011684706 -0.82449365 33
6.5241194 0.059288651 -0.79648972 33
6.5461516 -0.036805563 -0.76960963 33
6.4663978 0.045751531 -0.75810748 33
6.464045 0.070882849 -0.87419999 33
6.5728326 -0.083977051 -0.89999998 33
6.5734434 0.078826815 -0.89999998 33
6.484304 0.076181576 -0.87000924 33
6.5162249 -0.024652686 -0.61282957 33
6.4112206 0.045121826 -0.87419999 33
6.4887452 -0.10964022 -0.87419999 33
6.5294909 -0.045388661 -0.74367654 33
6.474647 -0.072495952 -0.89999998 33
6.4986873 0.034216598 -0.63780117 33
6.4238901 0.011851782 -0.86549139 33
6.4498262 -0.038440242 -0.79135126 33
6.5732236 -0.011570895 -0.85005111 33
6.4892502 -0.040647388 -0.6794576 33
6.564568 0.039709765 -0.85931945 33
6.5590463 -0.0025256774 -0.76994008 33
6.4913197 -0.02561108 -0.89999998 33
6.5516543 -0.05531029 -0.85731745 33
6.5083976 -0.072407618 -0.84227312 33
6.5877695 -0.071236171 -0.87419999 33
6.4987955 -0.037600964 -0.65594137 33
6.4902196 0.072417356 -0.84385484 33
6.5536056 -0.0439188 -0.82445097 33
6.5622659 0.01255757 -0.89999998 33
6.5987439 0.056963149 -0.89703071 33
6.4819055 -0.0099615585 -0.57499999 33
6.5232482 -0.11005248 -0.89999998 33
6.5134268 0.050112013 -0.73171675 33
6.3929605 -0.039173558 -0.89841223 33
6.4822435 -0.044721607 -0.89999998 33
6.4875636 0.044230953 -0.89999998 33
6.5512276 -0.0013175739 -0.72786343 33
6.5819612 0.052703261 -0.87419999 33
6.5504017 0.049200058 -0.83058882 33
6.4736323 -0.062944919 -0.81914526 33
6.498498 0.061861254 -0.78524494 33
6.3917603 -0.0242073 -0.87419999 33
6.5734158 0.067674004 -0.89999998 33
6.5164847 -0.017756712 -0.89999998 33
6.5319877 -0.027199628 -0.67933691 33
6.5368061 0.037904378 -0.73654503 33
6.5810285 0.079578452 -0.88466585 33
6.4606662 0.032889672 -0.72868061 33
6.5466204 0.01459923 -0.71596366 33
6.3870301 0.011773283 -0.89300877 33
6.5404892 0.060169209 -0.84177047 33
6.4576678 -0.019890891 -0.70401508 33
6.5992222 0.054964028 -0.89999998 33
6.4586611 -0.01636889 -0.69212991 33
6.5381322 0.067448795 -0.86653262 33
6.466435 -0.00056466518 -0.63391125 33
6.4714103 -0.037078027 -0.89999998 33
6.506053 0.11281913 -0.89999998 33
6.4388175 -0.034438264 -0.82967269 33
6.5899496 -0.023439456 -0.87419999 33
6.4606624 0.020662049 -0.89999998 33
6.4585738 0.055970434 -0.82661533 33
6.4429526 -0.017918658 -0.77422965 33
6.5469189 -0.099833749 -0.89999998 33
6.5504813 0.072397768 -0.89999998 33
6.5687146 -0.018426033 -0.83414871 33
6.5643668 -0.045596804 -0.89999998 33
6.4662046 -0.0015887076 -0.63570005 33
6.4261107 -0.05469152 -0.89999998 33
6.4708486 0.065756023 -0.83884788 33
6.4520698 -0.00088507467 -0.71015924 33
6.4364495 -0.026246522 -0.82086563 33
6.5586438 -0.036224633 -0.89999998 33
6.5576811 -0.033080071 -0.8099106 33
6.4667902 -0.039684754 -0.73074341 33
6.5727668 0.014931675 -0.84950155 33
6.4654937 0.017537391 -0.66157573 33
6.5940957 0.06047627 -0.87419999 33
6.5337586 0.037506431 -0.72307813 33
6.4249907 -0.08559759 -0.87965214 33
6.4776521 0.033920463 -0.67191774 33
6.6138039 -0.0022428953 -0.89234084 33
6.4369011 -0.051847793 -0.87419999 33
6.4343829 -0.011818259 -0.80990839 33
6.5722437 0.021751201 -0.85749096 33
6.4479322 -0.059883632 -0.87419999 33
6.4939752 -0.061587963 -0.78378969 33
6.42693 -0.011732029 -0.89999998 33
6.4303446 0.048665807 -0.87419999 33
6.5388808 0.038300812 -0.74616641 33
6.568368 -0.024886476 -0.89999998 33
6.5446515 -0.027386419 -0.73466623 33
6.495451 0.10928777 -0.87419999 33
6.4348125 -0.013870492 -0.89999998 33
6.3876176 -0.018489484 -0.89691883 33
6.5213051 -0.072598122 -0.89999998 33
6.5566897 -0.00020897287 -0.75617003 33
6.5387311 0.041075639 -0.75546092 33
6.5167918 -0.042881098 -0.70080781 33
6.4251637 0.0064405422 -0.85573626 33
6.490438 -0.067123786 -0.89999998 33
6.4980264 -0.066146128 -0.89999998 33
6.4378271 0.072499841 -0.89999998 33
6.5353284 0.095252447 -0.87419999 33
6.4372673 0.081238262 -0.89999998 33
6.5191517 -0.074480921 -0.8649773 33
6.5316234 0.031098245 -0.69178677 33
6.5007734 -0.02485312 -0.89999998 33
6.4504585 -0.094765075 -0.87419999 33
6.4536238 0.0053313654 -0.70440638 33
6.5675063 -0.039577156 -0.87251431 33
6.3886833 0.023346459 -0.88447958 33
6.5645804 0.008863763 -0.80277348 33
6.4169788 -0.015837114 -0.87419999 33
6.5541511 0.056969333 -0.87310702 33
6.492393 0.0055276733 -0.57499999 33
6.4938254 -0.049250636 -0.71920174 33
6.5607824 -0.027655946 -0.80977029 33
6.5992765 0.055821542 -0.88145125 33
6.4379935 -0.013866601 -0.79267597 33
6.5091519 0.041887525 -0.89999998 33
6.459497 0.056419045 -0.89999998 33
6.5630412 -0.0016621487 -0.79061538 33
6.5631795 -0.027948443 -0.82178634 33
6.5573969 0.098449118 -0.87433821 33
6.6066709 0.028131025 -0.89999998 33
6.6001234 0.054004811 -0.87583697 33
6.4725976 -0.08926481 -0.87419999 33
6.5653868 -0.0074366378 -0.80624884 33
6.495985 0.021184778 -0.89999998 33
6.4105058 -0.063777901 -0.89999998 33
6.6027045 -0.0076643191 -0.87419999 33
6.5131297 0.056757808 -0.76600182 33
6.5435052 -0.045911312 -0.89999998 33
6.5881987 -0.0093617784 -0.89999998 33
6.5567584 0.0017466095 -0.89999998 33
6.490881 -0.073313087 -0.84778816 33
6.5699182 0.0097142793 -0.83151346 33
6.4722505 0.032083888 -0.6809113 33
6.4645147 -0.030655093 -0.89999998 33
6.595685 -0.044231098 -0.89999998 33
6.4376192 -0.062073842 -0.89999998 33
6.4303079 0.0041927565 -0.82724196 33
6.4678459 -0.038928125 -0.72418022 33
6.4568176 0.052990731 -0.81927639 33
6.5816264 0.028071061 -0.89999998 33
6.471509 -0.047552623 -0.74986863 33
6.5804682 -0.025609666 -0.89999998 33
6.5581841 -0.081814654 -0.87419999 33
6.4668946 0.10870175 -0.87528318 33
6.6127739 -0.014014225 -0.88553452 33
6.4640703 0.075668052 -0.87419999 33
6.5376611 0.022241285 -0.68873376 33
6.6043358 -0.044971723 -0.89045185 33
6.5296869 0.0042638774 -0.61554122 33
6.4623346 0.10596517 -0.89999998 33
6.402832 -0.05922626 -0.88095331 33
6.5339823 -0.052238706 -0.78724176 33
6.4603491 -0.10681693 -0.88867778 33
6.5656824 -0.047103357 -0.89999998 33
6.5303144 -0.048671588 -0.76039517 33
6.5042577 0.037007902 -0.89999998 33
6.5520034 -0.023112867 -0.75723165 33
6.4200296 0.080636375 -0.8745966 33
6.5368719 0.015491745 -0.89999998 33
6.5618353 0.029788002 -0.82030123 33
6.5120854 -0.0505623 -0.73257679 33
6.5460215 0.03268382 -0.75508863 33
6.4286699 -0.011428086 -0.83994478 33
6.5321064 0.070486031 -0.86825705 33
6.5626016 0.015174 -0.89999998 33
6.60956 0.029902587 -0.89244252 33
6.4818521 0.047447778 -0.72595811 33
6.4735904 -0.030851655 -0.67140943 33
6.5057921 -0.056896444 -0.75880855 33
6.5685325 -0.0052732127 -0.82170439 33
6.4736533 0.032603014 -0.89999998 33
6.4354453 0.020919688 -0.81718564 33
6.4541998 0.013628727 -0.71021229 33
6.5238447 0.051345944 -0.89999998 33
6.4230447 -0.064720437 -0.89999998 33
6.5193868 -0.038944829 -0.68727946 33
6.5706654 -0.031438686 -0.8654393 33
6.5745778 0.067377321 -0.89999998 33
6.4945126 0.045998499 -0.89999998 33
6.4803605 -0.11228176 -0.88816267 33
6.4924245 0.071520247 -0.83674151 33
6.4379539 -0.0073678829 -0.78852081 33
6.4355359 -0.0071899388 -0.80122679 33
6.446425 -0.0012730804 -0.74026769 33
6.4409423 -0.017755384 -0.78414118 33
6.4304047 -0.022849698 -0.84588671 33
6.5174637 -0.10411504 -0.89999998 33
6.5547919 -0.073946528 -0.89999998 33
6.4662261 0.048349705 -0.76983726 33
6.5199656 0.074691869 -0.86697698 33
6.5111098 0.059886884 -0.89999998 33
6.4986033 0.030252388 -0.89999998 33
6.5482588 -0.045196071 -0.80784434 33
6.533493 0.00025269081 -0.63335478 33
6.5631261 -0.042985674 -0.86139017 33
6.5734262 -0.035359763 -0.89999998 33
6.4879684 0.0637189 -0.80104208 33
6.4656215 -0.10836063 -0.89300996 33
6.5264349 0.061165381 -0.81063426 33
6.4269371 0.014588561 -0.85087973 33
6.5321789 -0.07138446 -0.87278396 33
6.4425387 -0.050626107 -0.86360538 33
6.6031575 0.043395381 -0.87419999 33
6.5431585 0.058916304 -0.84472752 33
6.5347285 -0.017205227 -0.66171598 33
6.4274225 -0.0039376458 -0.84238183 33
6.5547733 -0.016576145 -0.76050401 33
6.4288216 -0.088791348 -0.87419999 33
6.5233903 -0.089472272 -0.89999998 33
6.4590216 -0.039714407 -0.89999998 33
6.4756875 -0.029737709 -0.66004735 33
6.5013628 -0.033373214 -0.63328058 33
6.4369955 -0.0085567757 -0.79425633 33
6.5158491 0.035115194 -0.66098922 33
6.5707259 -0.033691842 -0.87169313 33
6.5872154 -0.014310412 -0.89999998 33
6.5699935 -0.052200504 -0.89999998 33
6.4228673 -0.016071713 -0.87325734 33
6.5421081 0.0065886164 -0.68250203 33
6.5944076 -0.063168861 -0.89595491 33
6.4710288 0.038233716 -0.71122783 33
6.5305843 0.066387169 -0.84502155 33
6.4500093 -0.0061006425 -0.72397345 33
6.508822 -0.035136994 -0.89999998 33
6.4693699 0.0057248981 -0.62148291 33
6.4817681 0.064875834 -0.81393182 33
6.4423075 -0.027784031 -0.79586297 33
6.604147 -0.045376971 -0.88864571 33
6.4419289 -0.010648671 -0.76929748 33
6.5944743 -0.063073628 -0.89041054 33
6.4608169 0.043316107 -0.76523209 33
6.4631572 0.08218725 -0.89999998 33
6.463521 0.013222272 -0.66227967 33
6.4448566 -0.067347795 -0.89999998 33
6.5518799 0.042398669 -0.8122052 33
6.6070085 0.03923966 -0.87770057 33
6.5224357 -0.060372714 -0.79811716 33
6.4836726 0.11257155 -0.89751506 33
6.4648929 -0.0029740734 -0.89999998 33
6.5479741 -0.035599105 -0.77252316 33
6.5463605 -0.032484066 -0.7561202 33
6.4488244 0.0066929944 -0.73057908 33
6.5486245 -0.039085083 -0.78751832 33
6.449995 0.10198866 -0.89789265 33
6.5563183 -0.09904471 -0.88136709 33
6.4938817 -0.02477064 -0.59122592 33
6.5153756 0.034144476 -0.65524143 33
6.43646 -0.0052538388 -0.79525477 33
6.5418797 -0.050561942 -0.8047362 33
6.5417399 0.10584274 -0.89271796 33
6.5032616 -0.11371464 -0.8987053 33
6.4955268 0.035012405 -0.89999998 33
6.5246325 -0.030513629 -0.66439188 33
6.4664474 0.010246184 -0.64246452 33
6.562562 -0.01344679 -0.79479879 33
6.4944115 -0.06664943 -0.81074071 33
6.431231 0.015823048 -0.83014083 33
6.5583444 -0.097785652 -0.89447051 33
6.5313168 -0.017429713 -0.6464805 33
6.4440856 -0.0040049809 -0.75417817 33
6.5011439 -0.014641505 -0.89999998 33
6.4884334 0.016371343 -0.57499999 33
6.5301094 0.012370062 -0.62873852 33
6.4798737 -0.061509714 -0.79864639 33
6.5215826 -0.016022841 -0.89999998 33
6.5657177 -0.056391634 -0.89999998 33
6.5134172 0.033320859 -0.64699429 33
6.5016661 0.01629979 -0.57499999 33
6.4860673 -0.03508307 -0.65668231 33
6.399631 -0.053478707 -0.89564008 33
6.5365148 -0.063486226 -0.84375417 33
6.5119748 -0.08809498 -0.87419999 33
6.4446311 -0.022841265 -0.77382952 33
6.4394073 -0.037365366 -0.83474433 33
6.4321618 -0.023418969 -0.83792603 33
6.5823374 0.028561449 -0.89999998 33
6.6056776 0.042094123 -0.89142102 33
6.4558873 0.060041886 -0.85256249 33
6.462676 -0.012791268 -0.66586751 33
6.6092415 0.031090781 -0.89217389 33
6.5185838 -0.11213442 -0.87419999 33
6.5965466 -0.030409047 -0.87419999 33
6.4862556 -0.065920755 -0.81440645 33
6.4125619 -0.034416873 -0.87419999 33
6.4989862 0.029441874 -0.6122086 33
6.5065475 0.10798944 -0.87419999 33
6.5783892 -0.016453447 -0.87419999 33
6.5496716 0.0018340404 -0.71990991 33
6.4154773 0.055367567 -0.87419999 33
6.5208211 0.092263766 -0.89999998 33
6.5284762 -0.026165923 -0.89999998 33
6.5354314 -0.03613909 -0.72481549 33
6.5342588 -0.0062191146 -0.89999998 33
6.5240855 -0.029874619 -0.89999998 33
6.430151 0.019075532 -0.84096175 33
6.5603967 0.024755824 -0.80243939 33
6.4485397 0.074160442 -0.87419999 33
6.5215616 -0.057433821 -0.78192818 33
6.4709597 -0.047089376 -0.89999998 33
6.5208511 0.025438055 -0.63076735 33
6.4408917 0.049161799 -0.89999998 33
6.407887 -0.04296568 -0.87419999 33
6.4916916 -0.075127266 -0.89999998 33
6.4131212 -0.057130203 -0.89999998 33
6.5616722 -0.077976666 -0.89999998 33
6.5584393 -0.028642967 -0.80159283 33
6.4519305 0.056291755 -0.84879172 33
6.4880791 -0.04215556 -0.68860918 33
6.4997549 -0.062590659 -0.78912884 33
6.5580716 0.027619405 -0.79717231 33
6.4641809 -0.05120736 -0.78854799 33
6.4937859 -0.071635172 -0.83728856 33
6.5108113 -0.10476279 -0.89999998 33
6.5705967 0.025053732 -0.85458547 33
6.4718637 0.011376206 -0.61717892 33
6.3906326 -0.030621734 -0.87660742 33
6.5931907 -0.041198611 -0.87419999 33
6.4819498 -0.050784573 -0.74197799 33
6.4940858 0.056968711 -0.75919336 33
6.576004 0.043983646 -0.87419999 33
6.499506 0.077588566 -0.89999998 33
6.5651002 -0.009128971 -0.80567372 33
6.509666 0.082217418 -0.89999998 33
6.5687146 0.038975779 -0.87419999 33
6.5409441 -0.010506251 -0.68048275 33
6.5328794 0.00068749115 -0.63034713 33
6.5268359 0.094691232 -0.89999998 33
6.4640131 0.012730994 -0.65896279 33
6.4934554 -0.075419292 -0.89999998 33
6.5022306 -0.022735493 -0.89999998 33
6.5214643 0.072959565 -0.85961396 33
6.5396805 -0.03567709 -0.73998302 33
6.5985141 -0.039542474 -0.87419999 33
6.3950872 -0.036654491 -0.89999998 33
6.4431195 -0.094436817 -0.89999998 33
6.4388661 -0.087333679 -0.87419999 33
6.4562955 -0.043468215 -0.78366536 33
6.4524326 0.022713693 -0.89999998 33
6.535995 0.043983847 -0.75798112 33
6.4439511 -0.093910009 -0.87419999 33
6.4873114 0.11288989 -0.87632281 33
6.4677787 0.063217454 -0.89999998 33
6.5534806 -0.055713691 -0.86598068 33
6.5770011 0.032626566 -0.87419999 33
6.4627452 -0.070835859 -0.87419999 33
6.4977412 -0.06609147 -0.80776978 33
6.5029531 0.05981319 -0.7743395 33
6.4406691 -0.048766609 -0.89999998 33
6.4753361 -0.027794626 -0.65288192 33
6.5264759 0.0039038444 -0.59849262 33
6.4504619 0.020901334 -0.74110985 33
6.5422897 0.043432444 -0.77794051 33
6.5431743 -0.031551044 -0.73910648 33
6.5570254 0.014341888 -0.768233 33
6.4999871 -0.048519172 -0.71420175 33
6.4626203 -0.050736513 -0.79140365 33
6.5531464 -0.017323762 -0.75349569 33
6.5107613 -0.11305853 -0.87805456 33
6.4349155 0.047022875 -0.89999998 33
6.5080209 -0.021380007 -0.57771534 33
6.4737353 -0.067293815 -0.89999998 33
6.4801908 0.05176739 -0.75056905 33
6.5544491 -0.021495458 -0.76695573 33
6.5377765 -0.0432964 -0.76059484 33
6.4578075 -0.0025824115 -0.68072116 33
6.5213041 0.034325883 -0.67039722 33
6.4258213 -0.0864283 -0.89585167 33
6.5414896 0.05474465 -0.82153368 33
6.5534048 0.051172525 -0.89999998 33
6.4665551 -0.0051783067 -0.63584065 33
6.4793587 0.026979897 -0.63667732 33
6.5044928 0.073264062 -0.84596199 33
6.411818 0.00023752304 -0.87419999 33
6.4463711 -0.056156959 -0.86814612 33
6.5618124 -0.016145326 -0.79544216 33
6.4555621 -0.043038338 -0.78503537 33
6.3925476 0.037768055 -0.88082361 33
6.5165257 -0.046905607 -0.71980798 33
6.503861 0.040219631 -0.66997749 33
6.5604043 -0.016444663 -0.78880256 33
6.5431695 -0.054389339 -0.82526058 33
6.5298924 -0.012800838 -0.62855107 33
6.4729347 0.012202427 -0.6136474 33
6.4858193 -0.034912556 -0.65639013 33
6.5705342 -0.0061928346 -0.83281523 33
6.5035281 0.07057412 -0.83163875 33
6.5363746 0.035832919 -0.72745651 33
6.3911896 -0.010085877 -0.89999998 33
6.4924221 0.07301338 -0.8446272 33
6.4400301 0.024153512 -0.79928714 33
6.5268793 0.00064898591 -0.59855264 33
6.5251837 -0.096288227 -0.89999998 33
6.5564303 -0.030875912 -0.79827332 33
6.5389237 -0.034657665 -0.73335594 33
6.4943953 -0.077313684 -0.86752516 33
6.4956741 0.0054015224 -0.57499999 33
6.4217839 -0.082390636 -0.88536584 33
6.4437909 0.052399907 -0.8649711 33
6.5671673 0.03009402 -0.84570318 33
6.5491595 0.0015284675 -0.71702784 33
6.5670586 0.0032992971 -0.81280029 33
6.4820714 -0.022549385 -0.60928351 33
6.4811053 0.11234691 -0.87619036 33
6.5649304 0.0096102841 -0.8050434 33
6.4987311 -0.041960943 -0.67928082 33
6.5527439 0.050459646 -0.84434485 33
6.4653234 -0.017500911 -0.66226703 33
6.4191399 -0.043547772 -0.87419999 33
6.4433794 -0.098903894 -0.88400054 33
6.5931993 0.058053765 -0.89999998 33
6.5156274 -0.054011196 -0.75446153 33
6.5424647 0.10550488 -0.89863706 33
6.4977069 0.076542526 -0.863419 33
6.4360137 -0.035732735 -0.84604776 33
6.4773378 0.019477708 -0.6146273 33
6.5243144 0.0052683163 -0.58812118 33
6.5003409 -0.10763104 -0.87419999 33
6.4194417 -0.08004839 -0.89186525 33
6.4511762 -0.042797852 -0.80153477 33
6.527585 0.050410062 -0.76080739 33
6.473362 -0.033579245 -0.68387407 33
6.404212 0.053560544 -0.87419999 33
6.6058316 -0.041763548 -0.88333851 33
6.4876218 0.015386194 -0.57499999 33
6.5114737 0.065995254 -0.81228077 33
6.5564971 0.0054945461 -0.75809115 33
6.4818602 0.034942076 -0.89999998 33
6.3865666 0.006478148 -0.89237255 33
6.5419273 0.045226485 -0.78289855 33
6.5259809 -0.01334341 -0.89999998 33
6.5756702 -0.06995514 -0.89999998 33
6.4827785 0.048673727 -0.89999998 33
6.5429111 0.062000733 -0.89999998 33
6.5687842 -0.06042932 -0.87419999 33
6.5863862 0.0056961281 -0.87419999 33
6.5058088 0.077675007 -0.86944914 33
6.5847173 -0.072775438 -0.89999998 33
6.6052418 0.04302863 -0.88692445 33
6.4744501 0.016426941 -0.61702335 33
6.5206184 0.018445414 -0.60280263 33
6.5422387 0.045020934 -0.78339756 33
6.454659 -0.016465802 -0.71255553 33
6.5026751 0.018908218 -0.57499999 33
6.5629263 -0.015800999 -0.80051589 33
6.5264459 0.039462902 -0.70861924 33
6.4512129 0.086310059 -0.89999998 33
6.4047132 -0.034417771 -0.89999998 33
6.4857907 0.10447817 -0.89999998 33
6.4721117 0.054194532 -0.77987248 33
6.5852604 -0.051485114 -0.89999998 33
6.3866868 0.007850471 -0.88292861 33
6.5125732 0.099746913 -0.87419999 33
6.4981537 0.073621124 -0.84786326 33
6.4735613 0.10776139 -0.87419999 33
6.486403 -0.060647182 -0.78677666 33
6.4793792 -0.010252931 -0.57850105 33
6.4737134 0.031795576 -0.67509073 33
6.4978852 0.033295389 -0.63286346 33
6.3967128 -0.018360145 -0.89999998 33
6.3873396 0.015312873 -0.87589091 33
6.4093347 -0.019231435 -0.87419999 33
6.5547218 -0.048227418 -0.84421897 33
6.5358534 -0.019618263 -0.67340571 33
6.6021271 0.049708232 -0.89291477 33
6.5065484 0.074083835 -0.85032713 33
6.4405274 -0.0016286379 -0.89999998 33
6.5779853 0.04775412 -0.87419999 33
6.5054631 0.10410849 -0.87419999 33
6.5724678 -0.0081939539 -0.84416902 33
6.5691943 0.0066949273 -0.82599968 33
6.5464916 0.044081915 -0.89999998 33
6.4066243 -0.05833181 -0.87419999 33
6.5470824 -0.027600108 -0.74644607 33
6.4495096 -0.023435744 -0.75107312 33
6.4642701 -0.04659244 -0.76838779 33
6.5057435 0.10492164 -0.87419999 33
6.5250587 0.016830383 -0.61601573 33
6.5817862 -0.052245513 -0.87419999 33
6.5885682 0.039385591 -0.89999998 33
6.4743528 0.049966935 -0.75445461 33
6.5963225 0.028570984 -0.87419999 33
6.5555677 -0.015850762 -0.76333427 33
6.4491353 0.083331682 -0.89999998 33
6.5543933 -0.056257378 -0.87153 33
6.6031356 0.0058611934 -0.87419999 33
6.5584073 -0.097741641 -0.87612778 33
6.4858499 -0.010770295 -0.57499999 33
6.5238214 -0.090367965 -0.87419999 33
6.4194627 0.0074239541 -0.87419999 33
6.5475931 -0.015840949 -0.72293222 33
6.5017176 -0.070922807 -0.83349538 33
6.5188079 0.096643485 -0.87419999 33
6.6115537 0.0030388299 -0.89999998 33
6.489006 0.049493637 -0.89999998 33
6.4165363 0.042023011 -0.89999998 33
6.456202 -0.044098809 -0.78628218 33
6.4520521 -0.058929358 -0.8597734 33
6.5681095 -0.065064788 -0.87419999 33
6.4448996 0.032979239 -0.79774123 33
6.5295806 -0.067193545 -0.84676999 33
6.4271011 -0.014412842 -0.84991276 33
6.5515399 -0.056637321 -0.89999998 33
6.3871298 0.012915677 -0.8825596 33
6.5238557 0.11118027 -0.88061249 33
6.5302415 -0.094058536 -0.89999998 33
6.5795584 0.081048459 -0.88853645 33
6.4150949 -0.015863927 -0.87419999 33
6.613071 -0.010621656 -0.89953631 33
6.5740499 -0.086556949 -0.88913107 33
6.5085363 0.06809137 -0.81994593 33
6.6122956 0.01947844 -0.89379942 33
6.5391994 -0.067507833 -0.86934704 33
6.4417944 -0.097882874 -0.88621348 33
6.4868808 -0.054855738 -0.75608361 33
6.5750604 -0.075868621 -0.87419999 33
6.5166707 0.058211088 -0.77749097 33
6.5141926 0.0736892 -0.85536385 33
6.4785104 -0.10292925 -0.87419999 33
6.4251981 0.036815945 -0.87419999 33
6.4926052 0.043670453 -0.69148886 33
6.4793596 -0.095752284 -0.89999998 33
6.5715389 0.08854676 -0.88676864 33
6.5401483 -0.0260721 -0.71040177 33
6.3923674 -0.0098540811 -0.89999998 33
6.5492573 0.026295746 -0.7530008 33
6.4154854 -0.010214976 -0.87419999 33
6.5983267 0.056400131 -0.89999998 33
6.5344896 0.010843487 -0.64822227 33
6.5080676 0.030013159 -0.62083519 33
6.5562844 0.010301356 -0.75964057 33
6.4591818 -0.030808831 -0.72713971 33
6.4862299 0.084106147 -0.89999998 33
6.4117489 -0.0017477809 -0.87419999 33
6.4544039 -0.0048447088 -0.70000368 33
6.513236 -0.0062049716 -0.57499999 33
6.5074244 -0.035378736 -0.64820427 33
6.4730315 -0.10405782 -0.87419999 33
6.5527782 -0.091314711 -0.87419999 33
6.5706053 -0.022828711 -0.89999998 33
6.4340234 -0.053521287 -0.87419999 33
6.517931 -0.11243122 -0.89218026 33
6.4838748 0.031507276 -0.64403689 33
6.5382905 0.050488692 -0.7931869 33
6.4902344 0.0085236831 -0.57499999 33
6.4352636 -0.0024679694 -0.8000384 33
6.4911156 0.031927783 -0.6317656 33
6.5630665 0.0012854713 -0.79053873 33
6.511179 -0.040297151 -0.89999998 33
6.5121298 -0.074289352 -0.89999998 33
6.4946027 0.026672853 -0.60039896 33
6.497355 0.11026674 -0.87419999 33
6.5497174 0.047929712 -0.82335496 33
6.4517226 -0.10082209 -0.89999998 33
6.4466348 -0.042377699 -0.8180092 33
6.5945525 0.051580913 -0.89999998 33
6.450326 -0.028456129 -0.76067567 33
6.437283 0.086658269 -0.89999998 33
6.5480018 -0.030767461 -0.89999998 33
6.5574884 -0.036754407 -0.81880379 33
6.5336909 0.071432106 -0.87419999 33
6.4865556 0.10316389 -0.87419999 33
6.571661 -0.018434042 -0.84908301 33
6.4772329 0.031246953 -0.66171134 33
6.5131135 0.021647654 -0.59014595 33
6.5779166 -0.012970084 -0.87419999 33
6.4237227 0.016005879 -0.86868972 33
6.542357 -0.014626117 -0.89999998 33
6.4583836 0.025561012 -0.89999998 33
6.4391522 -0.088134058 -0.87419999 33
6.4612203 0.044618774 -0.76943165 33
6.4512582 0.011485647 -0.72158247 33
6.4391494 -0.0076262765 -0.78233254 33
6.5933199 -0.010017236 -0.89999998 33
6.4800715 -0.048163537 -0.73329616 33
6.4711165 0.041190159 -0.72368878 33
6.4662919 0.0032219654 -0.63614684 33
6.5294085 -0.067328699 -0.84705448 33
6.4405928 -0.059104998 -0.87419999 33
6.4374933 -0.041509561 -0.85460478 33
6.5918956 -0.064644106 -0.89999998 33
6.505352 0.062044375 -0.78622001 33
6.4704127 -0.004348048 -0.61507696 33
6.4331965 0.016974499 -0.89999998 33
6.5018749 -0.059639659 -0.77341551 33
6.5186815 0.10999103 -0.89999998 33
6.5379095 0.049493656 -0.7877087 33
6.4726439 0.050142031 -0.89999998 33
6.4512043 0.031473767 -0.76466006 33
6.4928622 0.070095599 -0.82909071 33
6.3974319 0.047626819 -0.89999998 33
6.5198526 0.072250426 -0.85413623 33
6.465548 -0.055757836 -0.80387145 33
6.6124439 0.017784536 -0.88549125 33
6.534215 -0.011765404 -0.64834863 33
6.5629621 0.035332758 -0.84025985 33
6.5018854 0.066755392 -0.81130499 33
6.5266581 0.056146216 -0.89999998 33
6.3961735 0.04606431 -0.88576692 33
6.5076227 0.0076791584 -0.89999998 33
6.6039371 -0.045826498 -0.89727706 33
6.5587959 -0.097469375 -0.8910951 33
6.5480728 -0.044689704 -0.89999998 33
6.5015368 0.089542776 -0.89999998 33
6.5705628 0.024747619 -0.85391033 33
6.6110411 -0.017655315 -0.87419999 33
6.4964151 0.056291789 -0.75558895 33
6.6107011 0.025643546 -0.89794409 33
6.5365267 0.013019991 -0.66218632 33
6.4617891 0.051085867 -0.89999998 33
6.4871087 0.075364813 -0.86265028 33
6.5449834 0.10164699 -0.87419999 33
6.5293493 -0.051355798 -0.76922828 33
6.4770746 -0.1114296 -0.89295226 33
6.521606 0.10727042 -0.87419999 33
6.5795751 0.013646555 -0.89999998 33
6.4421763 0.062199384 -0.87419999 33
6.4543958 0.044697985 -0.89999998 33
6.5668497 -0.034828898 -0.85684556 33
6.5000114 0.06848745 -0.89999998 33
6.5508666 0.01417658 -0.73677111 33
6.5020895 -0.054164376 -0.74426103 33
6.4111547 0.042186357 -0.87419999 33
6.4991546 0.093071841 -0.87419999 33
6.4539037 -0.037200276 -0.77079886 33
6.5448675 0.015759561 -0.7089957 33
6.4739895 0.022515379 -0.63881868 33
6.4928393 -0.10203302 -0.87419999 33
6.5254006 0.029515108 -0.6624946 33
6.5604615 -0.040003862 -0.84116578 33
6.5535555 -0.026977276 -0.77463657 33
6.4111414 -0.040038262 -0.89999998 33
6.4290719 0.01457794 -0.83956796 33
6.5325894 -0.043219876 -0.74403077 33
6.5437932 -0.091985285 -0.87419999 33
6.5162725 0.06590493 -0.81712282 33
6.5310707 -0.037252311 -0.71357137 33
6.4259114 0.086518429 -0.89370304 33
6.5387616 -0.014046928 -0.67525619 33
6.5123763 0.022187589 -0.59058273 33
6.4528742 -0.053947613 -0.89999998 33
6.431509 0.090680726 -0.87692022 33
6.5438161 0.015511373 -0.70326322 33
6.4679341 -0.021740736 -0.66151142 33
6.5774975 -0.083109558 -0.89811915 33
6.4744134 0.066856578 -0.83648098 33
6.4555588 -0.016874181 -0.70867032 33
6.4252448 -0.022027273 -0.87066507 33
6.5018964 0.066363737 -0.80921954 33
6.5166826 0.066566326 -0.82102156 33
6.4673853 -0.045865975 -0.75550926 33
6.5397696 0.019251958 -0.69049859 33
6.5071011 -0.029889079 -0.61911017 33
6.5522599 0.0058932509 -0.73587543 33
6.4668746 0.083025724 -0.89999998 33
6.5101323 -0.055624709 -0.89999998 33
6.3866954 -0.0079491921 -0.88869882 33
6.5141959 0.060605828 -0.78722388 33
6.4333997 0.040475849 -0.87072867 33
6.5375614 -0.019235836 -0.68027121 33
6.3881922 -0.021513132 -0.89078081 33
6.5241852 -0.039225318 -0.70051998 33
6.4719992 0.035450578 -0.89999998 33
6.5481868 -0.079157189 -0.87419999 33
6.4833522 -0.036345679 -0.66870487 33
6.4328556 0.015697137 -0.82170755 33
6.4421234 -0.036622003 -0.82024175 33
6.4935727 0.069115341 -0.82387108 33
6.4541678 0.098142669 -0.89999998 33
6.3961697 -0.026748339 -0.89999998 33
6.5839953 0.02458467 -0.87419999 33
6.4546375 -0.015663877 -0.71134573 33
6.528635 -0.10989961 -0.89370507 33
6.434145 0.070729382 -0.89999998 33
6.5214615 -0.1010591 -0.87419999 33
6.441164 0.097441375 -0.881576 33
6.5645823 -0.00063081796 -0.79820073 33
6.4693694 -0.0060164076 -0.6216858 33
6.5207767 0.015115693 -0.59271955 33
6.4302912 0.07837218 -0.87419999 33
6.5018411 0.058800925 -0.76894945 33
6.4534302 0.10359063 -0.89781833 33
6.4639297 -0.07281436 -0.87419999 33
6.4729757 -0.036558256 -0.69791591 33
6.5497427 0.060298655 -0.87128973 33
6.54914 0.034843516 -0.77521867 33
6.4750648 -0.056447666 -0.89999998 33
6.4484887 0.018440921 -0.89999998 33
6.5594368 -0.045980934 -0.85487187 33
6.4854317 -0.057675753 -0.7723754 33
6.5492067 -0.0044257035 -0.71888965 33
6.6078639 -0.036233053 -0.89338017 33
6.5698886 0.015886173 -0.83591545 33
6.5834155 -0.034170177 -0.87419999 33
6.5254979 0.04622218 -0.73591536 33
6.5324254 0.018009586 -0.65318114 33
6.5022249 0.042821813 -0.68386477 33
6.4576883 0.054130696 -0.82146096 33
6.4253159 0.0030278598 -0.85302913 33
6.5105705 0.0009236504 -0.89999998 33
6.5332422 -0.04759492 -0.76492149 33
6.4847689 0.016981924 -0.57730752 33
6.4761138 -0.062079877 -0.80956298 33
6.4206052 0.081212178 -0.8814069 33
6.5444593 0.078737505 -0.87419999 33
6.5460691 -0.10322405 -0.89999998 33
6.5121598 -0.042752452 -0.69198281 33
6.5109024 0.025132995 -0.60183281 33
6.5583301 0.048645034 -0.89999998 33
6.5556622 0.054390352 -0.86989838 33
6.476275 0.069292232 -0.84429753 33
6.5073681 -0.014582736 -0.57499999 33
6.4376159 -0.043446086 -0.89999998 33
6.5748549 0.079987876 -0.87419999 33
6.5461507 0.0054678405 -0.7032876 33
6.4746323 0.052255593 -0.76498181 33
6.5670891 -0.089817658 -0.87419999 33
6.4415379 -0.021068146 -0.78657711 33
6.4089093 0.067403726 -0.87419999 33
6.5697851 0.062680438 -0.87419999 33
6.5589271 0.01513386 -0.89999998 33
6.5284762 0.042432174 -0.72776425 33
6.5329142 0.070560567 -0.8703689 33
6.4341135 0.071073428 -0.89999998 33
6.4666734 0.04744665 -0.76454693 33
6.4537077 0.051815491 -0.82394618 33
6.3930159 -0.015721519 -0.87419999 33
6.4563627 -0.040421437 -0.89999998 33
6.4298434 0.089514524 -0.88041329 33
6.5337739 0.049435731 -0.77451491 33
6.4571567 0.031691786 -0.89999998 33
6.5293732 -0.00021566873 -0.61151773 33
6.505496 0.10101689 -0.89999998 33
6.3903685 -0.00059210625 -0.89999998 33
6.4828362 0.027610907 -0.62851197 33
6.5652742 0.038093809 -0.85827261 33
6.5271425 -0.017035197 -0.62604725 33
6.5277481 0.054581799 -0.7814526 33
6.4241982 0.055360813 -0.87419999 33
6.44171 -0.087344997 -0.89999998 33
6.5893989 -0.02564924 -0.87419999 33
6.4305038 -0.064205378 -0.89999998 33
6.551384 -0.028178776 -0.89999998 33
6.6097856 0.028579911 -0.87419999 33
6.4256368 0.0818289 -0.87419999 33
6.4928579 0.035219368 -0.64705569 33
6.431129 0.010906142 -0.82663202 33
6.5790219 -0.072470322 -0.89999998 33
6.4933162 -0.035029151 -0.64555037 33
6.4341416 0.015102996 -0.89999998 33
6.5296373 -0.059729747 -0.81058681 33
6.4178171 -0.069469891 -0.89999998 33
6.46034 0.04144365 -0.76044744 33
6.5926919 0.026291704 -0.87419999 33
6.4495358 0.0089081256 -0.7280454 33
6.5666533 -0.041416626 -0.89999998 33
6.4904017 0.073389404 -0.84871608 33
6.530179 -0.019619646 -0.89999998 33
6.3868127 -0.0092911078 -0.88983297 33
6.5324717 -0.023291469 -0.66755158 33
6.5783305 -0.0099791139 -0.89999998 33
6.5900869 0.069338895 -0.88168693 33
6.3984647 -0.050977781 -0.88383353 33
6.4075661 0.029807292 -0.89999998 33
6.5324864 -0.044004232 -0.74708712 33
6.505784 0.064654522 -0.80011839 33
6.4792852 0.022142798 -0.61653239 33
6.5565209 -0.098950282 -0.88803834 33
6.4408302 -0.049981426 -0.86806953 33
6.4485507 0.0081097754 -0.89999998 33
6.5233974 -0.047504101 -0.89999998 33
6.4809008 -0.020249257 -0.60341358 33
6.3905292 -0.0060548359 -0.87419999 33
6.5170627 0.056673542 -0.76991695 33
6.5284691 -0.018954724 -0.63735038 33
6.4188738 0.016541244 -0.89999998 33
6.5817432 -0.03808913 -0.89999998 33
6.5424137 -0.036153965 -0.75249738 33
6.5343413 -0.029334061 -0.89999998 33
6.4516091 -0.016180201 -0.72753173 33
6.4843307 0.031857163 -0.64475167 33
6.5366545 0.0065378728 -0.89999998 33
6.4942002 0.051176451 -0.89999998 33
6.5004721 -0.074700803 -0.85361224 33
6.4336452 0.027322624 -0.8368367 33
6.5454803 0.097804889 -0.89999998 33
6.5679722 0.070040457 -0.87419999 33
6.5640197 0.027881814 -0.82593173 33
6.5470638 -0.10336011 -0.88895249 33
6.5691557 0.090215452 -0.88716036 33
6.4347334 -0.042175487 -0.86910361 33
6.5417299 -0.048717771 -0.89999998 33
6.5706935 -0.03397825 -0.89999998 33
6.4417496 0.013532033 -0.77310365 33
6.5569115 -0.029423093 -0.79662359 33
6.5465155 -0.090420239 -0.89999998 33
6.4644165 0.025561068 -0.89999998 33
6.4491124 0.034674522 -0.78282619 33
6.5465641 0.056448851 -0.8447569 33
6.5439305 0.012668457 -0.69916552 33
6.4103746 -0.035080563 -0.87419999 33
6.6071782 -0.038790766 -0.89508283 33
6.481369 0.11036596 -0.89999998 33
6.4586258 0.052747622 -0.81256944 33
6.5578532 -0.051892709 -0.86966962 33
6.5453048 -0.060404688 -0.85785645 33
6.4647398 -0.046169113 -0.76509529 33
6.5803609 0.037636377 -0.87419999 33
6.5135489 0.097544052 -0.89999998 33
6.4299326 0.089577086 -0.89127028 33
6.5343184 -0.015982414 -0.65653509 33
6.539248 0.045172703 -0.89999998 33
6.5764527 -0.0013612305 -0.89999998 33
6.4948597 0.11355026 -0.87484902 33
6.4613357 0.051824853 -0.80011308 33
6.4745388 -0.072567217 -0.8639881 33
6.5218058 -0.11172954 -0.8766982 33
6.4575877 -0.014848481 -0.89999998 33
6.4575129 0.026380569 -0.72200775 33
6.4468307 0.046265692 -0.83108628 33
6.4693918 -0.018095659 -0.64497644 33
6.443686 0.007427786 -0.75819886 33
6.5930433 0.0046534622 -0.89999998 33
6.4041367 -0.048788853 -0.89999998 33
6.5808573 -0.01216148 -0.89999998 33
6.5314617 0.085124627 -0.89999998 33
6.5507421 0.0087881405 -0.72944856 33
6.5345502 -0.00071370235 -0.63920945 33
6.4825063 -0.039224144 -0.68453878 33
6.4291301 0.028253585 -0.86123461 33
6.5273032 -0.085324265 -0.89999998 33
6.4411893 -0.028175525 -0.80206043 33
6.5739145 0.073167615 -0.87419999 33
