# .PCD v0.7 - Point Cloud Data file format
VERSION 0.7
FIELDS x y z normal_x normal_y normal_z curvature
SIZE 4 4 4 4 4 4 4
TYPE F F F F F F F
COUNT 1 1 1 1 1 1 1
WIDTH 871
HEIGHT 1
VIEWPOINT 0 0 0 1 0 0 0
POINTS 871
DATA ascii
-2.8991532 1.9515982 25.872128 -0.8513357 0.49151924 0.18340202 0
-10.396629 -3.297096 0 0 0 -1 0
-0.71325123 9.6259546 0 0 0 -1 0
4.401752 -10.478073 1.5013701 0.42261809 -0.90630788 0 0
3.1346498 -5.6620746 10.083541 0.39974791 -0.89784932 0.18457569 0
0.060841616 7.4390016 0 -0 0 -1 0
0.38036811 11.366722 0.23275983 0.087155953 0.99619466 -1.4325807e-09 0
0.50457215 -2.5424805 0 0 0 -1 0
-6.3323636 0.095756896 10.828241 -0.97743434 0.10273261 0.18457566 0
-2.8805888 -0.80269176 28.536234 -0.93487257 -0.30375841 0.18369575 0
9.7021065 -5.9436183 1.9384096 0.81915212 -0.57357633 -8.85679e-09 0
3.867403 1.8907053 21.547279 0.85114545 0.49140939 0.18457569 0
-10.405216 0.96336764 0 0 -0 -1 0
2.2824669 8.6021471 2.5799999 -0 0 1 0
-5.6389275 -4.8879213 4.6860704 -0.73037648 -0.65763366 0.18457562 0
-1.5706121 6.0119491 11.363702 -0.20433973 0.96134126 0.18457562 0
6.6152282 4.2343454 2.6364131 0.85114557 0.49140924 0.18457557 0
-6.9106474 -1.9245878 6.2518196 -0.93471593 -0.30370703 0.18457566 0
7.5595889 0.44641969 4.1342001 0.97743434 0.10273261 0.18457566 0
0.10113713 -7.2786579 5.6580524 0 -0.98281837 0.18457565 0
-3.6309237 2.8114836 20.030098 -0.73037618 0.6576339 0.18457572 0
3.7716229 -1.700415 0 0 0 -1 0
-4.4256353 2.2493429 0 0 0 -1 0
4.1990461 6.4648414 3.4235415 0.57768625 0.79511654 0.18457571 0
2.1109688 -1.4973491 30.634968 0.77931994 -0.59799391 0.1872531 0
8.7210236 -4.4595332 2.5799999 0 0 1 0
-5.8202233 1.5010972 12.470696 -0.93471593 0.30370703 0.18457556 0
-6.8533764 -1.040051 7.5435948 -0.97743434 -0.10273261 0.18457566 0
-6.2736545 4.5660086 3.3213775 -0.73037654 0.65763372 0.1845756 0
1.0227518 -10.346896 2.5799999 0 0 1 0
4.9601822 -1.5792861 16.697407 0.93471593 -0.30370703 0.18457566 0
-5.0067225 -0.7908293 0 -0 0 -1 0
1.3064985 4.8369393 17.776003 0.20433959 0.96134138 0.1845756 0
-6.9405298 -1.5883927 6.653677 -0.93471593 -0.30370703 0.18457566 0
-5.5912981 9.923378 1.2330205 -0.42261809 0.90630788 0 0
2.9953103 6.9662609 4.0412397 0.39974791 0.89784932 0.18457566 0
-3.4705684 -4.2675433 15.169078 -0.57768577 -0.79511702 0.18457562 0
2.4611912 -3.753772 20.54146 0.57768667 -0.79511625 0.18457557 0
6.80617 9.0981426 1.9921513 0.57357633 0.81915212 0 0
4.7805786 6.8344855 2.5799999 -0 0 1 0
-5.445158 -0.37942323 15.368619 -0.97743428 -0.10273266 0.18457565 0
6.4103994 6.381249 0 -0 0 -1 0
-8.374136 1.4950405 0 0 -0 -1 0
-5.3154378 1.2123494 15.502118 -0.93471593 0.30370703 0.18457566 0
-6.7123313 0.068129256 8.8314714 -0.97743434 0.10273261 0.18457566 0
3.0185177 -2.0260665 0 0 0 -1 0
-2.6911964 -3.9428508 19.007071 -0.57768577 -0.79511702 0.18457562 0
3.2708285 -5.2126374 11.722939 0.57768577 -0.79511702 0.18457572 0
-2.8078651 -1.9567612 26.26745 -0.77931994 -0.59799391 0.18725312 0
-1.9671421 -7.7104554 0 0 0 -1 0
3.5543251 1.9398887 22.862259 0.8513357 0.49151924 0.18340202 0
6.1259937 -6.3018565 0 0 0 -1 0
-3.4656734 -5.2217021 11.074061 -0.57768577 -0.79511702 0.18457563 0
-5.7421503 -3.7778482 7.8778586 -0.85114557 -0.49140924 0.18457557 0
1.0433816 -4.4347262 20.162174 0.20433955 -0.96134132 0.18457563 0
-5.6412044 1.5880197 13.234247 -0.93471593 0.30370703 0.18457566 0
3.1513712 10.372893 0 -0 0 -1 0
4.4550586 -5.7791371 5.5761557 0.57768625 -0.79511654 0.18457562 0
8.1213913 7.9392943 2.2101443 0.70710683 0.70710683 0 0
3.847301 4.3317542 0 -0 0 -1 0
-2.0077791 7.2883358 4.2318087 -0.20433955 0.96134138 0.18457568 0
-7.069972 -0.43929294 6.7309694 -0.97743428 -0.10273266 0.18457563 0
-3.4879017 9.0017357 0 0 -0 -1 0
6.9779706 8.9778461 1.2199876 0.57357633 0.81915212 8.85679e-09 0
-7.1466722 -3.0660434 3.1783621 -0.93471581 -0.3037076 0.18457559 0
-11.297338 1.173432 0.80005264 -0.99619466 0.087155953 1.4325807e-09 0
-8.5280714 -7.1044416 0 0 0 -1 0
-3.9314761 -1.0973111 22.70083 -0.93487257 -0.30375841 0.18369575 0
-5.5032182 9.9644508 0.66020662 -0.42261809 0.90630788 0 0
4.5044322 -2.003495 18.307377 0.93471581 -0.30370742 0.18457571 0
-6.2998133 6.4426026 0 0 -0 -1 0
4.902483 0.88817793 17.95923 0.97743428 0.10273266 0.18457565 0
2.8428609 3.6594973 19.753025 0.57768661 0.79511625 0.18457572 0
0.36546579 -3.3547132 26.504118 0.12821758 -0.97390783 0.18725316 0
-4.457171 5.6862249 0 0 0 -1 0
4.0614696 5.0953908 9.753459 0.57768577 0.79511702 0.18457563 0
-10.246268 4.898859 0.55694586 -0.90630788 0.42261809 7.4979223e-09 0
4.0196948 1.1760162 22.123714 0.93471581 0.30370748 0.18457565 0
4.4849448 3.6224384 13.761301 0.73037618 0.6576339 0.18457569 0
6.3324704 -7.1659441 0 0 0 -1 0
6.0951791 0.59890801 11.804222 0.97743428 0.10273266 0.18457563 0
4.9609675 -2.2919054 0 0 0 -1 0
-1.006759 -4.0670857 22.117533 -0.20433959 -0.96134138 0.1845756 0
4.3130155 1.8012712 0 -0 0 -1 0
-4.5339103 -2.4262116 17.048056 -0.85114545 -0.49140939 0.18457569 0
4.0787635 -0.43918818 22.571198 0.97743434 -0.1027322 0.18457566 0
-6.6172757 -9.2304068 1.3062871 -0.57357633 -0.81915212 0 0
-1.7562553 2.0147421 30.194899 -0.59811848 0.77948231 0.18617646 0
2.307111 0.47214565 31.875954 0.97411078 0.12824446 0.18617645 0
-1.0071869 -5.8574729 12.79203 -0.20433973 -0.96134126 0.18457562 0
-5.3439856 3.63063 10.105893 -0.85114563 0.49140924 0.18457559 0
-4.8129268 -7.2836647 0 0 0 -1 0
-2.471307 -1.7221045 28.417534 -0.77931994 -0.59799391 0.18725312 0
-1.4669905 3.7538657 22.977592 -0.39974812 0.8978492 0.18457571 0
-6.7840662 -1.127985 7.86169 -0.97743434 -0.10273261 0.18457566 0
-4.3530531 -5.480032 7.1839004 -0.57768577 -0.79511702 0.18457563 0
5.483716 -5.6189294 0 0 0 -1 0
-5.9552493 2.4250922 0 0 0 -1 0
-0.8147828 6.9903598 7.1045227 -0.20433973 0.96134126 0.18457562 0
2.0244627 3.5422683 22.799532 0.39974812 0.8978492 0.18457571 0
-3.3324571 -0.96820861 25.962868 -0.93487257 -0.30375841 0.18369575 0
-5.9663262 -2.1650956 10.638249 -0.93471593 -0.30370703 0.18457566 0
2.0947964 4.2159066 19.370361 0.39974809 0.89784932 0.1845756 0
5.9967656 3.3575151 7.8228202 0.85114563 0.49140924 0.18457559 0
-2.3725278 5.651022 11.787885 -0.39974824 0.8978492 0.18457566 0
2.8699901 1.3173318 27.64809 0.90753764 0.3759146 0.18725313 0
-6.2858329 4.0026512 0 0 -0 -1 0
3.3124697 -1.1126626 25.82572 0.93487257 -0.30375841 0.18369575 0
4.6963267 -6.0560074 3.6283302 0.57768625 -0.79511654 0.18457562 0
4.4856105 7.5030565 2.5799999 0 0 1 0
-8.6209784 7.4397082 0.89047927 -0.70710683 0.70710683 0 0
3.2867091 4.1034451 16.451424 0.57768661 0.79511625 0.18457572 0
0.33505395 -1.6686509 32.5 0 -0 1 0
7.0373888 -3.3178802 3.1296468 0.85114557 -0.49140924 0.18457557 0
-0.161632 -6.3430614 10.639864 0 -0.98281831 0.18457562 0
-1.4438611 -3.5445833 0 0 0 -1 0
0.043231811 3.081054 28.045536 0 0.98303795 0.18340206 0
-6.6704473 -2.568177 0 0 0 -1 0
2.0843382 5.742949 11.964869 0.39974824 0.8978492 0.18457572 0
1.4211652 -9.218297 2.5799999 0 0 1 0
-6.5307999 5.4807754 0 0 -0 -1 0
6.8909097 -6.086782 2.5799999 0 0 1 0
-6.3733573 5.5003386 2.5799999 0 -0 1 0
-0.44055915 -3.6100912 25.124472 -0.12821767 -0.97390783 0.18725316 0
-8.3263416 -5.7852345 2.5799999 0 -0 1 0
4.6784105 -0.36633283 19.436275 0.97743428 -0.1027327 0.18457569 0
-4.9028983 2.7184916 14.56836 -0.85114557 0.49140921 0.18457572 0
-9.7908812 4.9052596 0 0 0 -1 0
2.4943082 -2.909518 0 0 0 -1 0
-8.1727991 1.6999727 0 0 -0 -1 0
-11.361913 -0.43532997 2.1396375 -0.99619466 -0.087155953 -0 0
-11.390271 0.11119992 0.76881999 -0.99619466 0.087155953 1.4325807e-09 0
3.5605457 -0.25705644 25.416832 0.97743434 -0.1027322 0.18457566 0
6.9088421 0.33257192 7.6436491 0.97743428 0.10273266 0.18457563 0
10.029245 -5.3642645 0.21824582 0.90630788 -0.42261809 0 0
3.8717334 5.1517754 10.104403 0.57768577 0.79511702 0.18457563 0
0.5100767 6.70611 8.7067213 0 0.98281831 0.18457562 0
2.519964 11.082015 1.0986425 0.25881863 0.96592593 0 0
1.8307256 9.4804983 2.5799999 -0 0 1 0
6.1868849 9.5317698 0.45913565 0.57357633 0.81915212 8.85679e-09 0
5.709496 -1.9266982 12.331136 0.93471593 -0.30370703 0.18457556 0
4.0188322 3.7921951 0 -0 0 -1 0
-2.3106852 11.021904 2.5799999 -0 0 1 0
-4.9920754 -1.7323526 16.284033 -0.93471593 -0.30370703 0.18457569 0
-0.11261616 -10.411895 2.5799999 0 0 1 0
-6.2853107 9.4628515 1.1724877 -0.57357633 0.81915212 -8.85679e-09 0
2.0505583 -1.1872249 31.859756 0.8513357 -0.49151924 0.18340202 0
6.8385496 -1.1684706 7.5506339 0.97743428 -0.10273266 0.18457565 0
2.4119232 5.928865 10.351028 0.39974824 0.8978492 0.18457572 0
4.6151409 -3.6805561 13.039038 0.73037618 -0.6576339 0.18457572 0
-3.3602428 4.5751529 14.189249 -0.57768577 0.79511702 0.18457571 0
-3.595511 7.088285 2.5799999 0 0 1 0
7.2832665 -8.3977051 0 0 0 -1 0
7.3443575 7.8826818 0 -0 0 -1 0
-1.5695962 7.6181574 2.9990742 -0.20433955 0.96134138 0.18457568 0
1.6224954 -2.4652686 28.717041 0.57768667 -0.79511625 0.18457571 0
-8.8779325 4.5121827 2.5799999 -0 0 1 0
-1.1254805 -10.964022 2.5799999 0 0 1 0
2.9491065 -4.538866 15.632343 0.57768577 -0.79511702 0.18457571 0
-2.5352736 -7.2495952 0 0 0 -1 0
-0.1312625 3.4216599 26.219883 0 0.98303795 0.18340206 0
-7.6109824 1.1851782 3.4508603 -0.97743434 0.10273261 0.18457566 0
-5.0173931 -3.8440244 10.864874 -0.73037618 -0.6576339 0.18457554 0
7.3223653 -1.1570895 4.9948874 0.97743434 -0.10273261 0.18457566 0
-1.0749727 -4.0647388 22.054239 -0.20433959 -0.96134138 0.1845756 0
6.4568253 3.9709764 4.0680528 0.85114557 0.49140924 0.18457557 0
5.9046421 -0.25256774 13.005993 0.97743428 -0.1027327 0.18457569 0
-0.86801988 -2.5611081 0 0 0 -1 0
5.1654572 -5.5310292 4.2682581 0.73037618 -0.6576339 0.1845756 0
0.83975071 -7.2407618 5.7726903 0.20433973 -0.96134126 0.18457562 0
8.7769461 -7.1236172 2.5799999 0 0 1 0
-0.12046737 -3.7600963 24.405861 0 -0.98303795 0.18340206 0
-0.97804576 7.2417355 5.6145172 -0.20433973 0.96134126 0.18457562 0
5.3605742 -4.39188 7.5549021 0.73037654 -0.65763372 0.1845756 0
6.2265701 1.255757 0 -0 0 -1 0
9.8744087 5.6963148 0.29692736 0.90630788 0.42261809 0 0
-1.8094528 -0.99615586 32.5 0 -0 1 0
2.3248284 -11.005248 0 0 0 -1 0
1.3426806 5.0112014 16.828323 0.20433959 0.96134138 0.1845756 0
-10.70395 -3.917356 0.15877563 -0.90630788 -0.42261809 0 0
-1.7756617 -4.4721608 0 0 0 -1 0
-1.2436608 4.4230952 0 0 -0 -1 0
5.1227775 -0.13175739 17.213657 0.97743428 -0.1027327 0.18457569 0
8.196125 5.2703261 2.5799999 0 0 1 0
5.0401583 4.9200058 6.9411201 0.73037648 0.65763366 0.18457562 0
-2.6367829 -6.2944922 8.0854759 -0.39974791 -0.89784932 0.18457566 0
-0.15019487 6.1861253 11.475505 0 0.98281831 0.18457562 0
-10.823968 -2.4207299 2.5799999 0 -0 1 0
7.3415527 6.7674007 0 -0 0 -1 0
1.6484609 -1.7756711 0 0 0 -1 0
3.1987529 -2.7199628 22.066307 0.73037648 -0.65763366 0.18457571 0
3.6806171 3.7904377 16.345497 0.73037618 0.6576339 0.18457569 0
8.1028414 7.9578452 1.5334142 0.70710683 0.70710683 0 0
-3.9333987 3.2889671 17.131941 -0.73037618 0.6576339 0.18457572 0
4.6620421 1.459923 18.403631 0.93471581 0.30370748 0.18457565 0
-11.296997 1.1773283 0.69912362 -0.99619466 0.087155953 1.4325807e-09 0
4.0489225 6.016921 5.8229537 0.57768625 0.79511654 0.18457571 0
-4.2332063 -1.9890891 19.598494 -0.85114545 -0.49140939 0.18457569 0
9.9222383 5.4964027 0 -0 0 -1 0
-4.1339035 -1.6368891 20.787008 -0.93471593 -0.30370703 0.18457569 0
3.8132153 6.7448792 3.3467364 0.39974824 0.8978492 0.18457572 0
-3.3565271 -0.05646652 26.608873 -0.97743434 -0.1027322 0.18457566 0
-2.8589525 -3.7078025 0 0 0 -1 0
0.60530937 11.281913 0 -0 0 -1 0
-6.118269 -3.4438264 7.0327306 -0.85114557 -0.49140924 0.18457557 0
8.9949522 -2.3439455 2.5799999 0 0 1 0
-3.9337473 2.0662048 0 0 0 -1 0
-4.1426144 5.5970435 7.3384671 -0.57768625 0.79511654 0.18457562 0
-5.7047491 -1.7918658 12.577035 -0.93471593 -0.30370703 0.18457569 0
4.6918907 -9.9833746 0 0 0 -1 0
5.0481181 7.2397771 0 -0 0 -1 0
6.8714676 -1.8426033 6.5851278 0.93471581 -0.3037076 0.18457565 0
6.4366918 -4.5596805 0 0 0 -1 0
-3.3795426 -0.15887076 26.429996 -0.97743434 -0.1027322 0.18457566 0
-7.3889103 -5.469152 0 0 0 -1 0
-2.9151301 6.5756021 6.115212 -0.39974791 0.89784932 0.18457569 0
-4.7930031 -0.088507466 18.984074 -0.97743434 -0.10273214 0.18457571 0
-6.3550682 -2.6246521 7.9134374 -0.93471581 -0.3037076 0.18457559 0
5.8643913 -3.6224635 0 0 0 -1 0
5.7681317 -3.3080072 9.0089417 0.85114563 -0.49140924 0.18457559 0
-3.3209567 -3.9684753 16.925661 -0.57768661 -0.79511625 0.18457572 0
7.2766643 1.4931675 5.0498433 0.97743434 0.10273261 0.18457566 0
-3.4506423 1.753739 23.842428 -0.8513357 0.49151924 0.18340202 0
9.4095831 6.047627 2.5799999 0 0 1 0
3.3758647 3.750643 17.692186 0.57768661 0.79511625 0.18457572 0
-7.500927 -8.5597591 2.0347853 -0.70710683 -0.70710683 1.0433859e-08 0
-2.2348135 3.3920462 22.808226 -0.57768667 0.79511625 0.18457571 0
11.380377 -0.22428954 0.76591742 0.99619466 -0.087155953 1.4325807e-09 0
-6.3099051 -5.1847792 2.5799999 0 0 1 0
-6.5617228 -1.1818259 9.0091581 -0.97743434 -0.10273261 0.18457566 0
7.2243586 2.1751201 4.2509065 0.93471581 0.3037076 0.18457559 0
-5.2067795 -5.9883633 2.5799999 0 0 1 0
-0.60246718 -6.1587963 11.621028 0 -0.98281831 0.18457562 0
-7.3070168 -1.1732029 0 -0 0 -1 0
-6.9655628 4.8665805 2.5799999 -0 0 1 0
3.8880663 3.8300812 15.38336 0.73037618 0.6576339 0.18457569 0
6.8367724 -2.4886475 0 0 0 -1 0
4.4651394 -2.738642 16.533377 0.85114557 -0.49140921 0.18457572 0
-0.45488608 10.928777 2.5799999 -0 0 1 0
-6.5187597 -1.3870492 0 0 0 -1 0
-11.238236 -1.8489484 0.30811784 -0.99619466 -0.087155953 -1.4325807e-09 0
2.1305199 -7.2598119 0 0 0 -1 0
5.668962 -0.020897286 14.382995 0.97743428 -0.1027327 0.18457569 0
3.8731048 4.107564 14.453907 0.73037618 0.6576339 0.18457569 0
1.6792008 -4.2881098 19.919218 0.39974812 -0.89784932 0.18457562 0
-7.4836431 0.64405423 4.4263768 -0.97743434 0.10273261 0.18457566 0
-0.95621079 -6.7123785 0 0 0 -1 0
-0.19736929 -6.6146126 0 0 0 -1 0
-6.2172694 7.2499843 0 0 -0 -1 0
3.5328152 9.5252447 2.5799999 -0 0 1 0
-6.2732797 8.123826 0 0 0 -1 0
1.9151624 -7.448092 3.5022717 0.20433955 -0.96134138 0.18457568 0
3.1623442 3.1098244 20.821323 0.7303763 0.65763372 0.18457571 0
0.077365808 -2.485312 0 0 -0 -1 0
-4.954144 -9.4765072 2.5799999 0 0 1 0
-4.6376352 0.53313655 19.559359 -0.97743434 0.10273227 0.18457566 0
6.750618 -3.9577155 2.7485721 0.85114557 -0.49140924 0.18457557 0
-11.131671 2.334646 1.5520399 -0.96592593 0.25881863 -2.1656346e-09 0
6.4580426 0.88637626 9.7226496 0.97743428 0.10273266 0.18457563 0
-8.3021193 -1.5837114 2.5799999 0 0 1 0
5.4151011 5.6969333 2.6892958 0.73037648 0.65763366 0.18457562 0
-0.76069742 0.55276734 32.5 0 0 1 0
-0.61746639 -4.9250636 18.079828 -0.20433973 -0.96134126 0.18457562 0
6.0782514 -2.7655947 9.0229712 0.85114557 -0.49140924 0.18457557 0
9.9276419 5.5821543 1.8548737 0.90630788 0.42261809 0 0
-6.2006626 -1.3866601 10.732401 -0.93471593 -0.30370703 0.18457566 0
0.91518396 4.1887527 0 -0 0 -1 0
-4.0503073 5.6419044 0 0 0 -1 0
6.3041439 -0.16621488 10.938463 0.97743434 -0.10273261 0.18457566 0
6.3179493 -2.7948442 7.8213682 0.93471593 -0.30370703 0.18457556 0
5.7396722 9.8449116 2.5661798 0.57357633 0.81915212 0 0
10.667108 2.8131025 0 -0 0 -1 0
10.012358 5.4004812 2.4163034 0.90630788 0.42261809 0 0
-2.7402411 -8.9264812 2.5799999 0 0 1 0
6.5386696 -0.74366379 9.3751144 0.97743428 -0.10273266 0.18457565 0
-0.40148428 2.1184778 0 0 -0 -1 0
-8.9494314 -6.37779 0 0 0 -1 0
10.270452 -0.76643193 2.5799999 -0 0 1 0
1.3129771 5.6757808 13.399819 0.20433973 0.96134126 0.18457562 0
4.3505173 -4.5911312 0 0 0 -1 0
8.8198528 -0.93617785 0 0 0 -1 0
5.6758518 0.17466094 0 0 0 -1 0
-0.91192597 -7.3313084 5.2211847 -0.20433955 -0.96134138 0.18457565 0
6.9918194 0.97142792 6.8486557 0.97743434 0.10273261 0.18457566 0
-2.7749472 3.2083888 21.908869 -0.57768667 0.79511625 0.18457557 0
-3.548533 -3.0655093 0 0 0 -1 0
9.5684795 -4.42311 0 0 0 -1 0
-6.2380972 -6.2073841 0 0 0 -1 0
-6.969192 0.41927564 7.2758031 -0.97743434 0.10273261 0.18457566 0
-3.2153981 -3.8928125 17.58198 -0.57768661 -0.79511625 0.18457572 0
-4.3182516 5.2990732 8.0723581 -0.57768625 0.79511654 0.18457562 0
8.1626329 2.807106 0 -0 0 -1 0
-2.8491042 -4.7552624 15.013136 -0.57768577 -0.79511702 0.18457562 0
8.0468264 -2.5609667 0 0 0 -1 0
5.8184104 -8.1814651 2.5799999 0 0 1 0
-3.3105605 10.870175 2.4716821 -0.25881863 0.96592593 0 0
11.27739 -1.4014225 1.4465457 0.99619466 -0.087155953 0 0
-3.5929677 7.5668054 2.5799999 0 0 1 0
3.7661219 2.2241285 21.126627 0.85114545 0.49140939 0.18457569 0
10.433578 -4.4971724 0.95481676 0.90630788 -0.42261809 7.4979223e-09 0
2.9687066 0.42638773 28.445879 0.97411078 0.12824446 0.18617645 0
-3.7665365 10.596517 0 0 -0 -1 0
-9.7168064 -5.922626 1.9046712 -0.81915212 -0.57357633 0 0
3.3982246 -5.2238708 11.275823 0.57768577 -0.79511702 0.18457572 0
-3.9650872 -10.681693 1.1322242 -0.42261809 -0.90630788 -7.4979223e-09 0
6.5682602 -4.7103357 0 0 0 -1 0
3.0314233 -4.8671589 13.960482 0.57768577 -0.79511702 0.18457571 0
0.42575598 3.7007902 0 -0 0 -1 0
5.2003255 -2.3112867 14.276832 0.93471581 -0.30370742 0.18457571 0
-7.9970489 8.0636377 2.5403397 -0.70710683 0.70710683 0 0
3.6872125 1.5491745 0 -0 0 -1 0
6.183527 2.9788003 7.9698749 0.85114563 0.49140924 0.18457559 0
1.2085201 -5.0562301 16.742321 0.20433973 -0.96134126 0.18457562 0
4.6021647 3.2683818 14.491139 0.85114557 0.49140921 0.18457574 0
-7.1330204 -1.1428086 6.0055246 -0.97743434 -0.10273261 0.18457566 0
3.2106605 7.0486035 3.1742935 0.39974791 0.89784932 0.18457566 0
6.2601504 1.5174 0 -0 0 -1 0
10.956 2.9902587 0.75574523 0.96592593 0.25881863 2.1656346e-09 0
-1.8147709 4.7447777 17.404188 -0.39974812 0.89784932 0.18457562 0
-2.6409574 -3.0851655 22.859055 -0.57768667 -0.79511625 0.18457571 0
0.57923645 -5.6896443 14.119143 0 -0.98281831 0.18457562 0
6.8532653 -0.52732128 7.8295627 0.97743434 -0.10273261 0.18457566 0
-2.6346893 3.2603014 0 0 0 -1 0
-6.4554791 2.0919688 8.281436 -0.93471593 0.30370703 0.18457556 0
-4.5800042 1.3628727 18.978771 -0.93471593 0.30370703 0.18457566 0
2.3844543 5.1345944 0 0 0 -1 0
-7.6955523 -6.472044 0 0 0 -1 0
1.9386567 -3.8944831 21.272053 0.39974812 -0.89784932 0.18457562 0
7.0665474 -3.1438687 3.4560688 0.93471593 -0.30370703 0.18457556 0
7.4577608 6.7377319 0 -0 0 -1 0
-0.54873121 4.5998497 0 0 0 -1 0
-1.9639518 -11.228176 1.1837324 -0.087155953 -0.99619466 0 0
-0.75756991 7.1520247 6.325851 -0.20433973 0.96134126 0.18457562 0
-6.2046213 -0.73678827 11.14792 -0.97743428 -0.10273266 0.18457563 0
-6.4464273 -0.7189939 9.8773203 -0.97743428 -0.10273266 0.18457563 0
-5.3574834 -0.12730803 15.973232 -0.97743434 -0.10273214 0.18457571 0
-5.9057746 -1.7755383 11.585883 -0.93471593 -0.30370703 0.18457566 0
-6.9595208 -2.2849698 5.4113302 -0.93471581 -0.3037076 0.18457559 0
1.7463576 -10.411504 0 0 -0 -1 0
5.4792132 -7.3946528 0 0 0 -1 0
-3.3774095 4.8349705 13.016276 -0.57768577 0.79511702 0.18457571 0
1.9965472 7.4691868 3.3023026 0.20433955 0.96134138 0.18457565 0
1.1110044 5.9886885 0 -0 0 -1 0
-0.13964553 3.0252388 0 0 0 -1 0
4.8258972 -4.5196071 9.2155647 0.73037618 -0.6576339 0.1845756 0
3.349298 0.02526908 26.66452 0.97743434 0.1027322 0.18457566 0
6.3125935 -4.2985673 3.8609848 0.85114557 -0.49140924 0.18457557 0
7.3426266 -3.5359762 0 0 0 -1 0
-1.2031574 6.3718901 9.895793 -0.20433973 0.96134126 0.18457562 0
-3.4378707 -10.836063 0.69900149 -0.25881863 -0.96592593 0 0
2.6434984 6.116538 8.9365721 0.39974824 0.8978492 0.18457572 0
-7.3062954 1.4588561 4.9120269 -0.97743428 0.10273266 0.18457565 0
3.2178924 -7.1384459 2.7216032 0.39974791 -0.89784932 0.18457569 0
-5.7461281 -5.0626106 3.6394615 -0.73037648 -0.65763366 0.18457562 0
10.31575 4.3395381 2.5799999 0 0 1 0
4.3158503 5.8916306 5.5272503 0.57768625 0.79511654 0.18457571 0
3.4728415 -1.7205228 23.828403 0.8513357 -0.49151924 0.18340202 0
-7.2577696 -0.39376459 5.7618155 -0.97743428 -0.10273266 0.18457563 0
5.4773335 -1.6576145 13.949598 0.93471593 -0.30370703 0.18457566 0
-7.1178222 -8.8791351 2.5799999 0 -0 1 0
2.3390248 -8.9472275 0 0 0 -1 0
-4.0978408 -3.9714408 0 0 0 -1 0
-2.4312503 -2.9737709 23.995264 -0.57768667 -0.79511625 0.18457571 0
0.13629149 -3.3373213 26.671942 0 -0.98303795 0.18340206 0
-6.3004336 -0.8556776 10.574366 -0.97743428 -0.10273266 0.18457563 0
1.584909 3.5115192 23.901079 0.39974812 0.8978492 0.18457571 0
7.0725994 -3.3691843 2.8306859 0.85114557 -0.49140924 0.18457557 0
8.7215281 -1.4310412 0 0 0 -1 0
6.9993591 -5.2200503 0 0 0 -1 0
-7.7132783 -1.6071712 2.6742678 -0.97743434 -0.10273261 0.18457566 0
4.2107863 0.65886164 21.749794 0.97743434 0.10273214 0.18457571 0
9.4407425 -6.3168859 0.40450868 0.81915212 -0.57357633 0 0
-2.8971353 3.8233716 18.877216 -0.57768577 0.79511702 0.18457571 0
3.05843 6.6387167 5.4978437 0.39974791 0.89784932 0.18457566 0
-4.9990492 -0.61006427 17.602652 -0.97743428 -0.10273266 0.18457565 0
0.88220465 -3.5136993 0 0 0 -1 0
-3.0630322 0.5724898 27.851709 -0.97411066 0.12824452 0.18617643 0
-1.8231691 6.4875832 8.6068172 -0.20433955 0.96134138 0.18457568 0
-5.7692685 -2.778403 10.413705 -0.85114563 -0.49140924 0.18457559 0
10.41468 -4.5376973 1.1354313 0.90630788 -0.42261809 7.4979223e-09 0
-5.8071318 -1.0648671 13.070251 -0.97743428 -0.10273266 0.18457565 0
9.4474106 -6.307363 0.95894492 0.81915212 -0.57357633 0 0
-3.9183016 4.3316107 13.476793 -0.73037648 0.65763366 0.18457571 0
-3.6842637 8.2187252 0 0 -0 -1 0
-3.6479125 1.3222272 23.772034 -0.93487257 0.30375841 0.18369575 0
-5.5143275 -6.7347798 0 0 0 -1 0
5.1879802 4.2398667 8.7794819 0.73037618 0.6576339 0.18457554 0
10.700868 3.9239659 2.2299449 0.90630788 0.42261809 -7.4979223e-09 0
2.2435806 -6.0372715 10.188285 0.39974824 -0.8978492 0.18457566 0
-1.6327193 11.257155 0.2484943 -0.087155953 0.99619466 1.4325807e-09 0
-3.5107133 -0.29740733 0 -0 0 -1 0
4.7974005 -3.5599105 12.747681 0.73037618 -0.6576339 0.18457572 0
4.6360679 -3.2484066 14.387981 0.85114545 -0.49140933 0.18457574 0
-5.1175604 0.66929942 16.942095 -0.97743428 0.10273266 0.18457569 0
4.8624687 -3.9085081 11.248166 0.73037618 -0.6576339 0.1845756 0
-5.000514 10.198866 0.2107344 -0.42261809 0.90630788 7.4979223e-09 0
5.6318455 -9.9044714 1.8632934 0.42261809 -0.90630788 7.4979223e-09 0
-0.61182189 -2.4770639 30.877409 -0.20437385 -0.96150261 0.18369576 0
1.5375438 3.4144475 24.475855 0.39974812 0.8978492 0.18457571 0
-6.3540025 -0.52538389 10.474526 -0.97743428 -0.10273266 0.18457563 0
4.1879735 -5.0561943 9.5263777 0.57768625 -0.79511654 0.18457562 0
4.1740026 10.584274 0.72820455 0.42261809 0.90630788 0 0
0.32616827 -11.371464 0.12946743 0.087155953 -0.99619466 0 0
-0.44733202 3.5012405 0 0 0 -1 0
2.4632654 -3.051363 23.56081 0.57768667 -0.79511625 0.18457571 0
-3.3552582 1.0246184 25.753548 -0.93487257 0.30375841 0.18369575 0
6.2562213 -1.344679 10.52012 0.93471581 -0.3037076 0.18457565 0
-0.5588634 -6.6649427 8.9259262 0 -0.98281831 0.18457562 0
-6.8769016 1.5823048 6.9859157 -0.93471581 0.3037076 0.18457565 0
5.8344235 -9.7785654 0.55294865 0.57357633 -0.81915212 0 0
3.1316648 -1.7429714 25.35195 0.8513357 -0.49151924 0.18340202 0
-5.5914507 -0.40049809 14.582184 -0.97743428 -0.10273266 0.18457565 0
0.11441304 -1.4641505 0 0 -0 -1 0
-1.1566565 1.6371344 32.5 0 0 1 0
3.0109539 1.2370062 27.12615 0.90753764 0.3759146 0.18725313 0
-2.0126438 -6.1509714 10.135361 -0.39974791 -0.89784932 0.18457566 0
2.1582465 -1.602284 0 0 0 -1 0
6.5717535 -5.6391635 0 0 0 -1 0
1.3417349 3.3320858 25.300571 0.39974812 0.8978492 0.18457571 0
0.16662572 1.629979 32.5 0 0 1 0
-1.3932601 -3.508307 24.33177 -0.39974812 -0.8978492 0.18457571 0
-10.03689 -5.3478708 0.43598986 -0.90630788 -0.42261809 0 0
3.6514738 -6.3486228 5.6245813 0.39974791 -0.89784932 0.18457569 0
1.1975021 -8.8094978 2.5799999 0 0 1 0
-5.5369024 -2.2841265 12.617051 -0.93471593 -0.30370703 0.18457569 0
-6.0592542 -3.7365365 6.5255647 -0.85114557 -0.49140924 0.18457557 0
-6.7838268 -2.3418968 6.2073979 -0.93471581 -0.3037076 0.18457559 0
8.2337589 2.8561449 0 -0 0 -1 0
10.567762 4.2094121 0.85789531 0.90630788 0.42261809 -7.4979223e-09 0
-4.411262 6.0041885 4.7437515 -0.57768625 0.79511654 0.18457562 0
-3.7324152 -1.2791268 23.41325 -0.93487257 -0.30375841 0.18369575 0
10.924162 3.1090782 0.78261292 0.96592593 0.25881863 2.1656346e-09 0
1.8583598 -11.213442 2.5799999 0 0 1 0
9.6546822 -3.0409048 2.5799999 0 0 1 0
-1.3744427 -6.5920758 8.5593529 -0.20433973 -0.96134126 0.18457568 0
-8.7437992 -3.4416873 2.5799999 0 0 1 0
-0.10135739 2.9441874 28.779142 0 0.98303795 0.18340206 0
0.65473151 10.798944 2.5799999 0 0 1 0
7.8389335 -1.6453447 2.5799999 0 0 1 0
4.9671574 0.18340404 18.00901 0.97743434 0.10273214 0.18457571 0
-8.4522686 5.5367565 2.5799999 -0 0 1 0
2.0820861 9.2263765 0 -0 0 -1 0
2.8476198 -2.6165924 0 0 0 -1 0
3.543143 -3.6139088 17.518454 0.73037648 -0.65763366 0.18457571 0
3.4258802 -0.62191147 0 0 0 -1 0
2.4085383 -2.987462 0 0 0 -1 0
-6.984899 1.9075531 5.9038253 -0.93471581 0.3037076 0.18457565 0
6.0396452 2.4755824 9.7560635 0.93471581 0.3037076 0.18457559 0
-5.1460042 7.4160442 2.5799999 0 -0 1 0
2.1561739 -5.743382 11.807182 0.39974824 -0.8978492 0.18457566 0
-2.9040194 -4.7089376 0 0 0 -1 0
2.0851283 2.5438056 26.923267 0.59811854 0.77948225 0.18617646 0
-5.9108324 4.9161801 0 0 -0 -1 0
-9.2113047 -4.2965679 2.5799999 0 -0 1 0
-0.8308503 -7.5127263 0 0 0 -1 0
-8.6878576 -5.7130203 0 0 0 -1 0
6.1671987 -7.7976665 0 0 0 -1 0
5.8439336 -2.8642967 9.8407164 0.85114557 -0.49140924 0.18457557 0
-4.8069439 5.6291757 5.1208272 -0.57768625 0.79511654 0.18457562 0
-1.192077 -4.2155561 21.139084 -0.20433959 -0.96134138 0.1845756 0
-0.024502032 -6.2590656 11.087118 0 -0.98281831 0.18457562 0
5.8071666 2.7619405 10.282772 0.85114563 0.49140924 0.18457559 0
-3.5819108 -5.1207361 11.145203 -0.57768577 -0.79511702 0.18457563 0
-0.62140971 -7.1635175 6.271142 0 -0.98281831 0.18457562 0
1.0811243 -10.476279 0 0 -0 -1 0
7.0596795 2.5053732 4.5414524 0.93471581 0.3037076 0.18457559 0
-2.8136106 1.1376206 28.28211 -0.9075377 0.37591442 0.18725313 0
-10.93673 -3.0621734 2.3392596 -0.96592593 -0.25881863 2.1656346e-09 0
9.3190432 -4.1198611 2.5799999 0 0 1 0
-1.8050004 -5.0784574 15.8022 -0.39974824 -0.8978492 0.1845756 0
-0.59144181 5.6968713 14.080661 -0 0.98281831 0.18457562 0
7.600379 4.3983645 2.5799999 -0 0 1 0
-0.049399886 7.7588563 0 0 0 -1 0
6.5100222 -0.91289711 9.4326258 0.97743428 -0.10273266 0.18457565 0
0.96661055 8.2217417 0 -0 0 -1 0
6.8714533 3.897578 2.5799999 -0 0 1 0
4.0943995 -1.0506251 21.951725 0.93471581 -0.30370742 0.18457571 0
3.2879324 0.068749115 26.965286 0.97743434 0.1027322 0.18457566 0
2.6835756 9.4691229 0 -0 0 -1 0
-3.5987008 1.2730994 24.103722 -0.93487257 0.30375841 0.18369575 0
-0.65447843 -7.5419292 0 0 0 -1 0
0.22304833 -2.2735493 0 0 -0 -1 0
2.1464472 7.2959561 4.0386019 0.20433955 0.96134138 0.18457565 0
3.9680455 -3.5677092 16.001698 0.73037618 -0.6576339 0.18457572 0
9.8514071 -3.9542472 2.5799999 0 0 1 0
-10.491293 -3.6654491 0 0 0 -1 0
-5.6880641 -9.4436817 0 0 0 -1 0
-6.1134095 -8.7333679 2.5799999 0 -0 1 0
-4.3704395 -4.3468213 11.633466 -0.73037618 -0.6576339 0.18457554 0
-4.7567558 2.2713692 0 0 0 -1 0
3.5995057 4.3983846 14.20189 0.57768577 0.79511702 0.18457562 0
-5.604897 -9.3910007 2.5799999 0 -0 1 0
-1.2688473 11.288989 2.3677166 -0.087155953 0.99619466 0 0
-3.2221537 6.3217454 0 0 -0 -1 0
5.3480668 -5.5713692 3.4019344 0.73037654 -0.65763372 0.1845756 0
7.7000923 3.2626567 2.5799999 -0 0 1 0
-3.7254939 -7.0835862 2.5799999 0 0 1 0
-0.22585924 -6.6091471 9.2230244 0 -0.98281831 0.18457562 0
0.29528984 5.981319 12.56605 -0 0.98281831 0.18457562 0
-5.9330959 -4.8766608 0 0 0 -1 0
-2.4663765 -2.7794626 24.711805 -0.59811848 -0.77948225 0.18617643 0
2.6476059 0.39038444 30.150738 0.97411078 0.12824446 0.18617645 0
-4.9538288 2.0901334 15.889014 -0.93471581 0.30370742 0.18457571 0
4.2289853 4.3432446 12.20595 0.73037618 0.6576339 0.18457554 0
4.3174052 -3.1551044 16.08935 0.73037618 -0.6576339 0.18457572 0
5.7025518 1.4341888 13.176697 0.93471593 0.30370703 0.18457569 0
-0.0012757499 -4.8519173 18.579826 -2.937087e-08 -0.98281825 0.18457562 0
-3.7379596 -5.0736513 10.859632 -0.57768577 -0.79511702 0.18457563 0
5.3146505 -1.7323763 14.650432 0.93471593 -0.30370703 0.18457566 0
1.0761027 -11.305853 2.1945465 0.087155953 -0.99619466 1.4325807e-09 0
-6.5084391 4.7022877 0 0 -0 -1 0
0.80209625 -2.1380007 32.228466 0.37599269 -0.90772671 0.18617645 0
-2.6264737 -6.7293816 0 0 0 -1 0
-1.9809303 5.1767392 14.943095 -0.39974824 0.8978492 0.1845756 0
5.4448962 -2.1495457 13.304427 0.93471593 -0.30370703 0.18457566 0
3.7776349 -4.3296399 13.940518 0.57768577 -0.79511702 0.18457571 0
-4.219264 -0.25824115 21.927881 -0.97743434 -0.10273214 0.18457571 0
2.1304302 3.4325881 22.960278 0.57768667 0.79511625 0.18457571 0
-7.4178557 -8.6428299 0.41483524 -0.70710683 -0.70710683 1.0433859e-08 0
4.1489673 5.4744649 7.8466301 0.57768577 0.79511702 0.18457563 0
5.3404779 5.1172523 0 -0 0 -1 0
-3.3444693 -0.51783067 26.415937 -0.97743434 -0.1027322 0.18457566 0
-2.0641377 2.6979897 26.332268 -0.57768667 0.79511625 0.18457571 0
0.44927156 7.326406 5.4038024 0 0.98281831 0.18457562 0
-8.8182144 0.023752304 2.5799999 0 0 1 0
-5.3628783 -5.615696 3.1853869 -0.73037648 -0.65763366 0.18457562 0
6.1812449 -1.6145326 10.455785 0.93471581 -0.3037076 0.18457565 0
-4.4437675 -4.303834 11.496462 -0.73037618 -0.6576339 0.18457554 0
-10.745246 3.7768054 1.9176388 -0.96592593 0.25881863 -2.1656346e-09 0
1.6525745 -4.6905608 18.019203 0.39974812 -0.89784932 0.18457562 0
0.38609904 4.0219631 23.002249 0 0.98303795 0.18340206 0
6.0404086 -1.6444662 11.119744 0.93471593 -0.30370703 0.18457556 0
4.3169494 -5.4389338 7.4739404 0.57768625 -0.79511654 0.18457562 0
2.989244 -1.2800838 27.144892 0.9075377 -0.37591442 0.18725313 0
-2.706522 1.2202427 28.635258 -0.9075377 0.37591442 0.18725313 0
-1.4180679 -3.4912555 24.360989 -0.39974812 -0.8978492 0.18457571 0
7.0534134 -0.61928344 6.7184772 0.97743434 -0.10273261 0.18457566 0
0.3527889 7.0574121 6.8361254 0 0.98281831 0.18457562 0
3.6374538 3.583292 17.254347 0.73037618 0.6576339 0.18457569 0
-10.881031 -1.0085877 0 -0 0 -1 0
-0.7578063 7.3013382 5.537281 0 0.98281837 0.18457565 0
-5.9969692 2.4153512 10.071288 -0.93471593 0.30370703 0.18457556 0
2.6879399 0.064898588 30.144735 0.97743434 0.1027322 0.18457566 0
2.5183651 -9.6288223 0 0 0 -1 0
5.6430283 -3.0875912 10.17267 0.85114563 -0.49140924 0.18457559 0
3.8923593 -3.4657664 16.664408 0.73037618 -0.6576339 0.18457572 0
-0.56047356 -7.7313681 3.2474825 0 -0.98281837 0.18457565 0
-0.43256673 0.54015225 32.5 0 0 1 0
-7.8216233 -8.2390633 1.4634169 -0.70710683 -0.70710683 1.0433859e-08 0
-5.6209278 5.2399907 3.5028911 -0.73037654 0.65763372 0.1845756 0
6.7167139 3.009402 5.4296823 0.85114563 0.49140924 0.18457559 0
4.9159446 0.15284675 18.297218 0.97743434 0.10273214 0.18457571 0
6.7058702 0.32992971 8.7199707 0.97743428 0.10273266 0.18457563 0
-1.7928592 -2.2549386 29.071651 -0.59811848 -0.77948225 0.18617643 0
-1.8894792 11.234691 2.3809648 -0.087155953 0.99619466 0 0
6.4930596 0.9610284 9.4956627 0.97743434 0.10273261 0.18457566 0
-0.12690265 -4.1960945 22.071917 -2.937087e-08 -0.98281825 0.18457562 0
5.2743778 5.0459647 5.5655141 0.73037648 0.65763366 0.18457562 0
-3.4676406 -1.7500911 23.773298 -0.8513357 -0.49151924 0.18340202 0
-8.0859976 -4.3547773 2.5799999 0 0 1 0
-5.6620431 -9.8903894 1.5999438 -0.42261809 -0.90630788 0 0
9.3199034 5.8053765 0 0 0 -1 0
1.5627449 -5.4011197 14.553845 0.20433973 -0.96134126 0.18457562 0
4.2464566 10.550488 0.13629442 0.42261809 0.90630788 -7.4979223e-09 0
-0.22929935 7.654253 3.6581006 0 0.98281837 0.18457565 0
-6.3986349 -3.5732734 5.3952231 -0.85114557 -0.49140924 0.18457557 0
-2.2662346 1.9477708 28.537271 -0.73049891 0.65774399 0.18369573 0
2.4314189 0.52683163 31.187883 0.97411078 0.12824446 0.18617645 0
0.034088686 -10.763104 2.5799999 0 0 1 0
-8.0558472 -8.0048389 0.81347597 -0.70710683 -0.70710683 0 0
-4.8823833 -4.2797852 9.8465214 -0.73037618 -0.6576339 0.18457554 0
2.7585258 5.0410061 13.919261 0.39974824 0.8978492 0.18457562 0
-2.6637924 -3.3579247 21.612593 -0.57768661 -0.79511625 0.18457572 0
-9.5788155 5.3560543 2.5799999 -0 0 1 0
10.583177 -4.1763549 1.6661507 0.90630788 -0.42261809 7.4979223e-09 0
-1.2378259 1.5386194 32.5 0 0 1 0
1.1473874 6.599525 8.7719221 0.20433955 0.96134138 0.18457565 0
5.6496863 0.54945463 14.190886 0.97743428 0.10273266 0.18457565 0
-1.8139958 3.4942076 0 0 -0 -1 0
-11.343323 0.64781481 0.762748 -0.99619466 0.087155953 1.4325807e-09 0
4.1927466 4.5226483 11.710143 0.73037648 0.65763366 0.18457562 0
2.5981016 -1.334341 0 0 0 -1 0
7.5670152 -6.9955144 0 0 0 -1 0
-1.7221522 4.8673725 0 0 -0 -1 0
4.2911134 6.2000732 0 -0 0 -1 0
6.8784275 -6.042932 2.5799999 0 0 1 0
8.6386261 0.5696128 2.5799999 -0 0 1 0
0.5809052 7.7675004 3.0550857 0 0.98281837 0.18457565 0
8.4717226 -7.2775435 0 0 0 -1 0
10.524185 4.3028631 1.3075536 0.90630788 0.42261809 -7.4979223e-09 0
-2.5549698 1.6426942 28.297663 -0.8513357 0.49151924 0.18340202 0
2.0618343 1.8445414 29.719734 0.73049891 0.65774399 0.18369573 0
4.2238636 4.5020933 11.660245 0.73037648 0.65763366 0.18457562 0
-4.5340934 -1.6465802 18.74445 -0.93471593 -0.30370703 0.18457569 0
0.26752588 1.8908218 32.5 0 0 1 0
6.2926221 -1.5800999 9.948411 0.93471581 -0.3037076 0.18457565 0
2.6446064 3.9462903 19.138077 0.57768577 0.79511702 0.18457562 0
-4.8786893 8.6310062 0 0 -0 -1 0
-9.5286646 -3.441777 0 0 0 -1 0
-1.4209309 10.447817 0 0 0 -1 0
-2.7888131 5.4194531 12.01275 -0.39974824 0.8978492 0.18457566 0
8.5260239 -5.1485114 0 0 0 -1 0
-11.331317 0.78504711 1.70714 -0.99619466 0.087155953 0 0
1.2573106 9.9746914 2.5799999 0 0 1 0
-0.18465495 7.3621125 5.2136765 0 0.98281837 0.18457565 0
-2.6438925 10.776139 2.5799999 -0 0 1 0
-1.3597194 -6.0647182 11.322335 -0.20433973 -0.96134126 0.18457568 0
-2.0620949 -1.0252931 32.149895 -0.9075377 -0.37591442 0.18725313 0
-2.6286576 3.1795578 22.490929 -0.57768667 0.79511625 0.18457557 0
-0.21148737 3.3295391 26.713654 0 0.98303795 0.18340206 0
-10.328721 -1.8360145 0 0 0 -1 0
-11.266029 1.5312873 2.4109087 -0.99619466 0.087155953 0 0
-9.0665197 -1.9231435 2.5799999 0 -0 1 0
5.4721875 -4.822742 5.5781021 0.73037654 -0.65763372 0.1845756 0
3.5853548 -1.9618263 22.65943 0.8513357 -0.49151924 0.18340202 0
10.21271 4.9708233 0.70852524 0.90630788 0.42261809 -7.4979223e-09 0
0.65484905 7.4083838 4.9672894 0 0.98281831 0.18457562 0
-5.9472513 -0.16286379 0 -0 0 -1 0
7.7985277 4.7754121 2.5799999 -0 0 1 0
0.54629731 10.410849 2.5799999 0 0 1 0
7.2467823 -0.81939536 5.583097 0.97743434 -0.10273261 0.18457566 0
6.9194341 0.66949272 7.4000306 0.97743434 0.10273261 0.18457566 0
4.6491666 4.4081917 0 -0 0 -1 0
-9.3375692 -5.8331809 2.5799999 0 -0 1 0
4.7082548 -2.7600107 15.355392 0.85114557 -0.49140921 0.18457572 0
-5.0490246 -2.3435743 14.892688 -0.85114545 -0.49140939 0.18457569 0
-3.5729661 -4.6592441 13.16122 -0.57768577 -0.79511702 0.18457562 0
0.57433075 10.492164 2.5799999 0 0 1 0
2.5058751 1.6830382 28.398426 0.77931994 0.59799403 0.18725312 0
8.1786385 -5.2245512 2.5799999 0 0 1 0
8.8568134 3.9385591 0 -0 0 -1 0
-2.5647268 4.9966936 14.554539 -0.39974824 0.8978492 0.1845756 0
9.6322727 2.8570983 2.5799999 0 0 1 0
5.5567913 -1.5850762 13.66657 0.93471593 -0.30370703 0.18457566 0
-5.0864921 8.333168 0 0 0 -1 0
5.4393525 -5.6257377 2.8469975 0.73037654 -0.65763372 0.1845756 0
10.313549 0.58611935 2.5799999 0 0 1 0
5.8407083 -9.7741642 2.3872199 0.57357633 -0.81915212 -8.85679e-09 0
-1.4150318 -1.0770295 32.5 0 -0 1 0
2.3821204 -9.0367966 2.5799999 0 0 1 0
-8.0537367 0.7423954 2.5799999 0 -0 1 0
4.7593021 -1.5840949 17.706779 0.93471593 -0.30370703 0.18457566 0
0.17175382 -7.0922809 6.6504602 0 -0.98281837 0.18457565 0
1.8807703 9.6643486 2.5799999 -0 0 1 0
11.155373 0.30388299 0 0 0 -1 0
-1.099394 4.9493637 0 0 -0 -1 0
-8.3463612 4.202301 0 0 0 -1 0
-4.3797917 -4.4098811 11.371779 -0.73037618 -0.6576339 0.18457554 0
-4.7947826 -5.8929358 4.0226617 -0.57768625 -0.79511654 0.18457571 0
6.8109732 -6.5064788 2.5799999 0 0 1 0
-5.5100541 3.2979238 10.225879 -0.85114563 0.49140924 0.18457559 0
2.9580426 -6.7193542 5.3230028 0.39974791 -0.89784932 0.18457569 0
-7.2898822 -1.4412842 5.0087223 -0.97743434 -0.10273261 0.18457566 0
5.1539836 -5.6637321 0 0 0 -1 0
-11.287002 1.2915677 1.7440398 -0.99619466 0.087155953 0 0
2.3855665 11.118027 1.9387493 0.25881863 0.96592593 0 0
3.0241609 -9.4058533 0 0 0 -1 0
7.9558406 8.104846 1.146356 0.70710683 0.70710683 1.0433859e-08 0
-8.4905367 -1.5863928 2.5799999 0 0 1 0
11.307073 -1.0621656 0.04637124 0.99619466 -0.087155953 0 0
7.4049911 -8.655695 1.0868948 0.70710683 -0.70710683 0 0
0.85361528 6.8091373 8.0054092 0.20433955 0.96134138 0.18457565 0
11.229585 1.947844 0.62005866 0.99619466 0.087155953 0 0
3.9199438 -6.750783 3.0652962 0.57768577 -0.79511702 0.18457572 0
-5.82054 -9.7882872 1.3786534 -0.57357633 -0.81915212 8.85679e-09 0
-1.31194 -5.4855738 14.391639 -0.20433973 -0.96134126 0.18457562 0
7.5060515 -7.5868621 2.5799999 0 0 1 0
1.6670563 5.8211088 12.250901 0.20433973 0.96134126 0.18457568 0
1.4192746 7.3689198 4.4636149 0.20433955 0.96134138 0.18457565 0
-2.148947 -10.292925 2.5799999 0 0 1 0
-7.4802003 3.6815946 2.5799999 0 -0 1 0
-0.73949111 4.3670454 20.851114 -0.20433955 0.96134132 0.18457563 0
-2.0640213 -9.5752287 0 0 0 -1 0
7.1538758 8.8546762 1.3231368 0.57357633 0.81915212 8.85679e-09 0
4.0148335 -2.6072099 18.959824 0.85114545 -0.49140933 0.18457574 0
-10.763261 -0.98540813 0 -0 0 -1 0
4.9257045 2.6295745 14.699923 0.85114557 0.49140921 0.18457574 0
-8.4514761 -1.0214976 2.5799999 0 0 1 0
9.832655 5.6400132 0 -0 0 -1 0
3.4489863 1.0843487 25.177774 0.93487257 0.30375841 0.18369575 0
0.80675811 3.0013158 27.916483 0.20437385 0.96150261 0.18369576 0
5.6284242 1.0301356 14.035941 0.97743428 0.10273266 0.18457565 0
-4.0818181 -3.080883 17.286028 -0.7303763 -0.65763372 0.18457571 0
-1.37701 8.410615 0 0 0 -1 0
-8.8251238 -0.17477809 2.5799999 0 -0 1 0
-4.5596108 -0.4844709 19.999632 -0.97743434 -0.10273214 0.18457571 0
1.323612 -0.62049717 32.5 0 -0 1 0
0.74244988 -3.5378737 25.179573 0.20437385 -0.96150261 0.18369576 0
-2.6968553 -10.405782 2.5799999 0 0 1 0
5.2778187 -9.1314707 2.5799999 0 0 1 0
7.0605302 -2.2828712 0 0 0 -1 0
-6.5976796 -5.3521285 2.5799999 0 0 1 0
1.793116 -11.243122 0.78197616 0.087155953 -0.99619466 1.4325807e-09 0
-1.6125191 3.1507277 25.596313 -0.39974812 0.8978492 0.18457571 0
3.8290462 5.0488691 10.681308 0.57768577 0.79511702 0.18457563 0
-0.97656208 0.8523683 32.5 0 0 1 0
-6.4736166 -0.24679694 9.9961576 -0.97743428 -0.10273266 0.18457563 0
-0.8884511 3.1927783 26.823441 -0.20437385 0.96150261 0.18369576 0
6.3066554 0.12854712 10.946127 0.97743428 0.10273266 0.18457563 0
1.1178986 -4.0297151 0 0 0 -1 0
1.2129905 -7.4289351 0 0 -0 -1 0
-0.53975058 2.6672854 29.960106 -0.12821767 0.97390783 0.18725315 0
-0.26452345 11.026674 2.5799999 -0 0 1 0
4.9717317 4.7929711 7.664505 0.73037648 0.65763366 0.18457562 0
-4.8277435 -10.082209 0 0 0 -1 0
-5.3365436 -4.2377701 8.1990776 -0.73037618 -0.6576339 0.18457554 0
9.4552546 5.1580915 0 -0 0 -1 0
-4.9674091 -2.845613 13.932433 -0.85114557 -0.49140921 0.18457574 0
-6.2717047 8.6658268 0 0 0 -1 0
4.8001947 -3.0767462 0 0 0 -1 0
5.7488475 -3.6754408 8.1196232 0.85114563 -0.49140924 0.18457559 0
3.3691037 7.1432104 2.5799999 -0 0 1 0
-1.3444431 10.316389 2.5799999 -0 0 1 0
7.1661105 -1.8434043 5.0916996 0.93471581 -0.3037076 0.18457565 0
-2.2766857 3.1246953 23.828869 -0.57768667 0.79511625 0.18457571 0
1.3113405 2.1647654 30.985405 0.57768667 0.79511625 0.18457571 0
7.7916512 -1.2970084 2.5799999 0 0 1 0
-7.627717 1.600588 3.1310282 -0.97743428 0.10273266 0.18457565 0
4.2356906 -1.4626117 0 0 0 -1 0
-4.161664 2.5561013 0 0 -0 -1 0
-6.0847583 -8.813406 2.5799999 0 -0 1 0
-3.8779693 4.4618773 13.056837 -0.57768577 0.79511702 0.18457571 0
-4.8741617 1.1485647 17.841751 -0.93471593 0.30370703 0.18457566 0
-6.0850477 -0.76262766 11.766746 -0.97743428 -0.10273266 0.18457563 0
9.331975 -1.0017236 0 0 0 -1 0
-1.9928288 -4.8163538 16.670383 -0.39974824 -0.8978492 0.1845756 0
-2.8883555 4.1190157 17.631119 -0.57768577 0.79511702 0.18457571 0
-3.3708141 0.32219654 26.385313 -0.97743434 0.1027322 0.18457565 0
2.9408236 -6.7328696 5.2945542 0.39974791 -0.89784932 0.18457569 0
-5.9407401 -5.9104996 2.5799999 0 0 1 0
-6.2506733 -4.1509562 4.5395193 -0.85114557 -0.49140924 0.18457557 0
9.1895571 -6.4644103 0 0 0 -1 0
0.53521806 6.2044373 11.378001 0 0.98281831 0.18457562 0
-2.9587257 -0.4348048 28.492304 -0.97411078 -0.12824439 0.18617643 0
-6.6803493 1.6974499 0 0 -0 -1 0
0.18748538 -5.9639659 12.658448 0 -0.98281831 0.18457562 0
1.868135 10.999103 0 -0 0 -1 0
3.7909665 4.9493656 11.229132 0.57768577 0.79511702 0.18457563 0
-2.7356246 5.0142031 0 0 -0 -1 0
-4.8795896 3.1473768 13.533995 -0.85114557 0.49140921 0.18457572 0
-0.7137956 7.0095596 7.0909271 0 0.98281837 0.18457565 0
-10.256816 4.762682 0 0 0 -1 0
1.9852778 7.2250428 4.5863762 0.20433955 0.96134138 0.18457565 0
-3.4451892 -5.5757837 9.6128569 -0.57768625 -0.79511654 0.18457571 0
11.244405 1.7784535 1.4508731 0.99619466 0.087155953 0 0
3.4215143 -1.1765404 25.165138 0.93487257 -0.30375841 0.18369575 0
6.2962136 3.5332758 5.9740148 0.85114557 0.49140924 0.18457557 0
0.18856508 6.675539 8.869504 0 0.98281831 0.18457562 0
2.6658294 5.6146216 0 0 0 -1 0
-10.382629 4.606431 1.4233065 -0.90630788 0.42261809 0 0
0.76228952 0.76791584 0 -0 0 -1 0
10.393719 -4.5826497 0.27229238 0.90630788 -0.42261809 0 0
5.8795924 -9.7469378 0.89049 0.57357633 -0.81915212 0 0
4.8072824 -4.4689703 0 0 0 -1 0
0.15367155 8.954278 0 -0 0 -1 0
7.0562944 2.474762 4.6089659 0.93471581 0.3037076 0.18457559 0
11.104117 -1.7655315 2.5799999 -0 0 1 0
-0.35849819 5.629179 14.441104 -0 0.98281831 0.18457562 0
11.070121 2.5643547 0.20559138 0.96592593 0.25881863 2.1656346e-09 0
3.6526506 1.3019991 23.781368 0.93487257 0.30375841 0.18369575 0
-3.821074 5.1085868 0 0 0 -1 0
-1.2891315 7.5364814 3.7349708 -0.20433955 0.96134138 0.18457568 0
4.4983172 10.164699 2.5799999 0 0 1 0
2.9349272 -5.1355796 13.077174 0.39974824 -0.8978492 0.1845756 0
-2.2925143 -11.14296 0.70477116 -0.25881863 -0.96592593 2.1656346e-09 0
2.1606188 10.727042 2.5799999 0 0 1 0
7.9574914 1.3646555 0 0 0 -1 0
-5.7823658 6.2199383 2.5799999 -0 0 1 0
-4.5604329 4.4697986 0 0 -0 -1 0
6.6849742 -3.4828899 4.3154449 0.85114557 -0.49140924 0.18457557 0
0.0011378083 6.8487453 0 -0 0 -1 0
5.0866523 1.417658 16.322891 0.93471593 0.30370703 0.18457569 0
0.20895563 -5.4164376 15.573897 0 -0.98281831 0.18457562 0
-8.884531 4.2186356 2.5799999 -0 0 1 0
-0.084534101 9.3071842 2.5800002 0 0 1 0
-4.609653 -3.7200277 12.920116 -0.73037618 -0.6576339 0.18457569 0
4.4867463 1.5759562 19.10043 0.93471593 0.30370703 0.18457569 0
-2.6010537 2.2515378 26.118134 -0.73049891 0.65774399 0.18369573 0
-0.71607947 -10.203302 2.5799999 0 0 1 0
2.5400801 2.9515109 23.750538 0.57768667 0.79511625 0.18457571 0
6.0461726 -4.0003862 5.8834214 0.85114563 -0.49140924 0.18457559 0
5.3555403 -2.6977277 12.536344 0.85114563 -0.49140924 0.18457559 0
-8.8858671 -4.0038261 0 0 0 -1 0
-7.0927987 1.457794 6.0432062 -0.97743428 0.10273266 0.18457565 0
3.2589309 -4.3219876 15.596924 0.57768577 -0.79511702 0.18457571 0
4.3793015 -9.1985283 2.5799999 0 0 1 0
1.6272532 6.5904927 8.2877169 0.20433973 0.96134126 0.18457568 0
3.1070931 -3.7252309 18.642862 0.57768577 -0.79511702 0.18457571 0
-7.408843 8.6518431 0.62969643 -0.70710683 0.70710683 -1.0433859e-08 0
3.8761482 -1.4046928 22.474382 0.93471581 -0.30370742 0.18457571 0
1.2376181 2.2187588 30.941727 0.39974812 0.8978492 0.18457571 0
-4.7125678 -5.3947611 0 0 0 -1 0
-6.8491135 9.0680723 2.3079793 -0.57357633 0.81915212 0 0
4.3816123 1.5511373 19.673677 0.93471581 0.30370748 0.18457565 0
-3.2065771 -2.1740737 23.848856 -0.8513357 -0.49151924 0.18340202 0
7.7497301 -8.310956 0.18808198 0.70710683 -0.70710683 0 0
-2.5586517 6.685658 6.3519049 -0.39974824 0.8978492 0.18457566 0
-4.4441051 -1.6874182 19.132967 -0.93471593 -0.30370703 0.18457569 0
-7.4755344 -2.2027273 2.9334943 -0.93471581 -0.3037076 0.18457559 0
0.18963067 6.636374 9.0780478 0 0.98281831 0.18457562 0
1.6682557 6.6566324 7.8978438 0.20433973 0.96134126 0.18457568 0
-3.2614741 -4.5865974 14.449077 -0.57768577 -0.79511702 0.18457562 0
3.9769824 1.9251958 20.950142 0.85114545 0.49140939 0.18457569 0
0.71008569 -2.9889078 28.088985 0.20437385 -0.96150261 0.18369576 0
5.2259808 0.58932507 16.41246 0.97743428 0.10273266 0.18457565 0
-3.3125236 8.3025723 0 0 -0 -1 0
1.0132519 -5.5624709 0 0 0 -1 0
-11.330453 -0.79491925 1.1301205 -0.99619466 -0.087155953 -0 0
1.4195696 6.0605826 11.277615 0.20433973 0.96134126 0.18457568 0
-6.6600099 4.047585 2.92713 -0.85114557 0.49140924 0.18457557 0
3.7561271 -1.9235836 21.972878 0.85114545 -0.49140933 0.18457574 0
-11.180795 -2.1513133 0.9219178 -0.96592593 -0.25881863 0 0
2.4185281 -3.9225316 19.948004 0.57768667 -0.79511625 0.18457557 0
-2.8000886 3.5450578 0 0 0 -1 0
4.8186665 -7.9157186 2.5799999 0 0 1 0
-1.6647922 -3.634568 23.129511 -0.39974812 -0.8978492 0.18457571 0
-6.7144632 1.5697136 7.8292446 -0.93471581 0.3037076 0.18457565 0
-5.7876754 -3.6622002 7.9758244 -0.85114557 -0.49140924 0.18457557 0
-0.64273119 6.9115338 7.6128917 0 0.98281837 0.18457565 0
-4.5831966 9.8142672 0 0 -0 -1 0
-10.383042 -2.6748338 0 0 0 -1 0
8.3995409 2.458467 2.5799999 -0 0 1 0
-4.5362601 -1.5663878 18.865427 -0.93471593 -0.30370703 0.18457569 0
2.8635163 -10.989961 0.62949383 0.25881863 -0.96592593 0 0
-6.5854912 7.0729384 0 0 -0 -1 0
2.1461475 -10.10591 2.5799999 0 0 1 0
-5.8835912 9.7441378 1.8423973 -0.57357633 0.81915212 -8.85679e-09 0
6.4582233 -0.063081793 10.179928 0.97743434 -0.10273261 0.18457566 0
-3.0630722 -0.60164076 27.831421 -0.97411078 -0.12824439 0.18617643 0
2.077692 1.5115693 30.728046 0.77931994 0.59799403 0.18725312 0
-6.9708619 7.8372183 2.5799999 -0 0 1 0
0.18408798 5.8800926 13.105055 -0 0.98281831 0.18457562 0
-4.6569705 10.359063 0.21816473 -0.42261809 0.90630788 7.4979223e-09 0
-3.6070561 -7.281436 2.5799999 0 0 1 0
-2.7024169 -3.6558256 20.208406 -0.57768661 -0.79511625 0.18457572 0
4.9742718 6.0298657 2.871026 0.57768625 0.79511654 0.18457571 0
4.9140062 3.4843516 12.478131 0.85114563 0.49140924 0.18457559 0
-2.4935479 -5.6447668 0 0 0 -1 0
-5.151114 1.8440921 0 0 -0 -1 0
5.9436746 -4.5980935 4.5128107 0.73037654 -0.65763372 0.1845756 0
-1.4568323 -5.7675753 12.762461 -0.20433973 -0.96134126 0.18457562 0
4.9206519 -0.44257036 18.111034 0.97743428 -0.1027327 0.18457569 0
10.786376 -3.6233053 0.66198158 0.96592593 -0.25881863 0 0
6.9888797 1.5886173 6.4084558 0.93471593 0.30370703 0.18457566 0
8.3415556 -3.4170175 2.5799999 0 0 1 0
2.5498011 4.6222181 16.408464 0.39974809 0.89784932 0.1845756 0
3.2425365 1.8009586 24.681887 0.8513357 0.49151924 0.18340202 0
0.2225143 4.2821813 21.613523 2.937087e-08 0.98281825 0.18457562 0
-4.2311459 5.4130697 7.8539062 -0.57768625 0.79511654 0.18457562 0
-7.4683909 0.30278599 4.6970897 -0.97743434 0.10273261 0.18457566 0
1.0570444 0.092365041 0 0 0 -1 0
3.3242338 -4.7594919 13.507854 0.57768577 -0.79511702 0.18457571 0
-1.5231062 1.6981924 32.269249 -0.59811848 0.77948231 0.18617646 0
-2.3886342 -6.2079878 9.0437031 -0.39974791 -0.89784932 0.18457566 0
-7.9394684 8.1212177 1.8593096 -0.70710683 0.70710683 0 0
4.4459572 7.8737507 2.5799999 0 0 1 0
4.6069069 -10.322405 0 0 0 -1 0
1.2159938 -4.2752452 20.801718 0.20433973 -0.96134126 0.18457562 0
1.0902436 2.5132995 29.816717 0.37599272 0.90772671 0.18617645 0
5.8330064 4.8645034 0 0 0 -1 0
5.566227 5.4390354 3.0101604 0.73037648 0.65763366 0.18457562 0
-2.3725076 6.9292235 5.57025 -0.39974824 0.8978492 0.18457566 0
0.73680645 -1.4582736 32.5 0 -0 1 0
-6.2383976 -4.3446088 0 0 0 -1 0
7.4854736 7.9987879 2.5799999 0 0 1 0
4.6150737 0.54678404 19.671242 0.97743434 0.10273214 0.18457571 0
-2.5367589 5.2255592 13.501819 -0.39974824 0.8978492 0.1845756 0
6.7089286 -8.9817657 2.5799999 0 0 1 0
-5.8462377 -2.1068146 11.342288 -0.93471593 -0.30370703 0.18457566 0
-9.1090479 6.7403727 2.5799999 -0 0 1 0
6.9785314 6.2680435 2.5799999 -0 0 1 0
